2.457596123930141800e+02 1.355564025988956928e+03 1.231663252133200785e+02
2.486106601243340606e+02 1.361937367240652520e+03 1.241172916843252665e+02
2.513840758788280709e+02 1.367313393322615866e+03 1.248546082265080486e+02
2.541744707551119973e+02 1.372692191683695910e+03 1.255895689038222258e+02
2.570833787670600259e+02 1.379074980117034556e+03 1.265325072209508903e+02
2.593936423543141814e+02 1.379452190174004272e+03 1.262119565535073775e+02
2.622282903435944945e+02 1.384838213996008790e+03 1.269407770808466012e+02
2.650799472891368964e+02 1.390227014966520528e+03 1.276672376137272522e+02
2.680568911196870090e+02 1.396620912000259750e+03 1.286007359140615449e+02
2.703943690324264821e+02 1.397002565497070464e+03 1.282764092401716880e+02
2.732902492564931549e+02 1.402398587059116153e+03 1.289967337526673532e+02
2.763165489001241895e+02 1.408800542701044833e+03 1.299233838998677584e+02
2.792481479270014120e+02 1.414202396277981507e+03 1.306387524038177617e+02
2.816128401652260891e+02 1.414588493214632990e+03 1.303106497234815038e+02
2.839775622460894056e+02 1.414974595023864140e+03 1.299825429024584764e+02
2.870633944507747515e+02 1.421386269474304754e+03 1.309009404678937472e+02
2.894382920598341684e+02 1.421774032700697035e+03 1.305714217853096670e+02
2.925547391670242519e+02 1.428190707238795085e+03 1.314855639097149265e+02
2.949398421469183518e+02 1.428580136754928162e+03 1.311546292248830241e+02
2.973249749694511479e+02 1.428969571143640906e+03 1.308236903993644091e+02
3.436142471603990600e+01 1.219043167847299401e+03 1.270220321802190711e+02
3.645733072247293194e+01 1.219385378506053257e+03 1.267312237750796839e+02
3.855324417978756912e+01 1.219727590381355640e+03 1.264404143361253432e+02
4.039384708461567186e+01 1.223967963684463939e+03 1.270757976582326592e+02
4.249656412574613285e+01 1.224311286420125725e+03 1.267840442173275619e+02
4.459927370621693399e+01 1.224654607937642595e+03 1.264922918115941570e+02
4.646709839557847488e+01 1.228899425900329334e+03 1.271238980823434304e+02
4.857661902052477387e+01 1.229243859496350296e+03 1.268312006394875766e+02
5.068613964547104445e+01 1.229588293092371487e+03 1.265385031966316660e+02
5.279565279997962080e+01 1.229932725468651142e+03 1.262458067903041865e+02
5.464558646825578592e+01 1.235159584830305221e+03 1.271025837253633313e+02
5.676361157052734541e+01 1.235505407001376398e+03 1.268087062804081597e+02
5.888163667279890490e+01 1.235851229172447574e+03 1.265148288354529882e+02
6.099966177507046439e+01 1.236197051343518751e+03 1.262209513904978166e+02
6.311768687734202388e+01 1.236542873514589928e+03 1.259270739455426451e+02
6.545276162833803824e+01 1.231999324608487768e+03 1.244896242035122782e+02
6.756228225328432302e+01 1.232343758204508731e+03 1.241969267606563676e+02
6.947176217437865375e+01 1.237580340026206841e+03 1.250454416120338692e+02
7.178131603273916994e+01 1.233032624176809577e+03 1.236115329114729775e+02
7.389083665768546894e+01 1.233377057772830540e+03 1.233188354686171238e+02
7.613996965745263878e+01 1.229804439230601929e+03 1.221159984766775324e+02
7.824268669858309977e+01 1.230147761966263715e+03 1.218242450357723783e+02
8.034539627905391512e+01 1.230491083483780358e+03 1.215324926300389734e+02
8.244811332018434769e+01 1.230834406219442144e+03 1.212407391891338762e+02
8.466322094837931900e+01 1.227256232160460740e+03 1.200426232310231853e+02
8.665353994178562402e+01 1.231521050472620573e+03 1.206572333424953172e+02
8.885504040234890510e+01 1.227940654692920589e+03 1.194610053882861962e+02
9.095094640878194525e+01 1.228282865351674445e+03 1.191701969831468091e+02
9.304685986609655401e+01 1.228625077226976828e+03 1.188793875441924683e+02
9.514276586275154557e+01 1.228967287884134294e+03 1.185885791404098200e+02
9.723867186918455729e+01 1.229309498542888150e+03 1.182977707352704897e+02
9.926981981636743058e+01 1.233580983233752704e+03 1.189067158012230152e+02
1.014304838624944836e+02 1.229993919857203082e+03 1.177161539277051361e+02
1.035264047902468718e+02 1.230336132952246999e+03 1.174253434522224211e+02
1.056223107869018207e+02 1.230678343609404237e+03 1.171345350484397727e+02
1.077182167835567981e+02 1.231020554266561703e+03 1.168437266446571243e+02
1.098525398934192907e+02 1.226444228896612231e+03 1.154341237391960817e+02
1.119399414127489791e+02 1.226785050978719710e+03 1.151444953375127511e+02
1.140273578533979872e+02 1.227125875497116795e+03 1.148548648654860358e+02
1.161147593825057385e+02 1.227466697580820664e+03 1.145652364624459665e+02
1.182021609018354269e+02 1.227807519662927916e+03 1.142756080607625790e+02
1.202895624211651437e+02 1.228148341745035395e+03 1.139859796590791916e+02
1.223769639502728666e+02 1.228489163828739265e+03 1.136963512560391223e+02
1.244643654696025834e+02 1.228829985910846517e+03 1.134067228543557917e+02
1.265517669987103631e+02 1.229170807994550387e+03 1.131170944513156655e+02
1.286391685180400373e+02 1.229511630076657866e+03 1.128274660496323349e+02
1.307265700373697257e+02 1.229852452158765118e+03 1.125378376479489475e+02
1.328139715664774769e+02 1.230193274242468988e+03 1.122482092449088782e+02
1.349013730858071654e+02 1.230534096324576467e+03 1.119585808432254908e+02
1.369887746051368538e+02 1.230874918406683719e+03 1.116689524415421602e+02
1.391568366249102837e+02 1.236153719004485538e+03 1.124815964404469923e+02
1.412527426313432670e+02 1.236495929663239394e+03 1.121907880353076621e+02
1.434267956324069360e+02 1.240790747286247552e+03 1.127799049263907705e+02
1.456144557994907700e+02 1.245087786631567042e+03 1.133671338038324166e+02
1.477239689637773949e+02 1.245432219009443315e+03 1.130744373961481983e+02
1.499566786987312810e+02 1.250721576426607044e+03 1.138781038877359606e+02
1.520746963403431948e+02 1.251067397379533304e+03 1.135842274779524246e+02
1.543048938153726795e+02 1.255371382036393243e+03 1.141655542745542675e+02
1.565784262713875421e+02 1.260667403400467037e+03 1.149635641776272337e+02
1.588689825952056935e+02 1.265966204347741723e+03 1.157592120172549812e+02
1.611434033503709884e+02 1.270277409594542632e+03 1.163344028032118445e+02
1.632920520258063561e+02 1.270628231852981116e+03 1.160362763163415707e+02
1.654407007110197867e+02 1.270979054113015991e+03 1.157381498281146150e+02
1.675893344651358348e+02 1.271329873935164642e+03 1.154400254115876692e+02
1.700975249175162674e+02 1.280604058133194030e+03 1.170962369991823380e+02
1.724697391472760728e+02 1.285916191839470684e+03 1.178805547380309235e+02
1.748589623219083649e+02 1.291231102694250694e+03 1.186625124740375554e+02
1.770399280131353805e+02 1.291587201538198542e+03 1.183599019789186855e+02
1.796416975587324600e+02 1.300876664934358587e+03 1.200031294027344302e+02
1.820802467038069494e+02 1.306199629524748616e+03 1.207782431262938871e+02
1.845358185066853025e+02 1.311525374916774354e+03 1.215509873521214672e+02
1.867491161252452230e+02 1.311886752780925235e+03 1.212438907797672982e+02
1.892302025782654198e+02 1.317216662682855485e+03 1.220131024224869520e+02
1.914520046839286636e+02 1.317579429123652972e+03 1.217048258466767265e+02
1.939586045689246134e+02 1.322913504750733409e+03 1.224704974830984838e+02
1.961889111519131461e+02 1.323277659766581110e+03 1.221610409051889974e+02
1.987210381606487317e+02 1.328615904770343604e+03 1.229231630333964063e+02
2.009598492111844621e+02 1.328981448359644673e+03 1.226125264547443408e+02
2.031986602714982837e+02 1.329346991950542360e+03 1.223018898747355365e+02
2.054374713220340141e+02 1.329712535539843657e+03 1.219912532960834710e+02
2.076762973036671269e+02 1.330078081567031177e+03 1.216806146457313389e+02
2.099150934328835660e+02 1.330443622720042640e+03 1.213699801374226013e+02
2.121539194145166789e+02 1.330809168747230160e+03 1.210593414870704692e+02
2.143927155437330612e+02 1.331174709900241396e+03 1.207487069787617315e+02
2.166315415253661740e+02 1.331540255927428916e+03 1.204380683284095994e+02
2.188703376545826131e+02 1.331905797080440379e+03 1.201274338201008618e+02
2.211091636362157260e+02 1.332271343107627899e+03 1.198167951697487297e+02
2.233479597752101995e+02 1.332636884262235753e+03 1.195061606600833102e+02
2.255867857470652211e+02 1.333002430287826883e+03 1.191955220110878599e+02
2.282379766695216858e+02 1.338360114125455539e+03 1.199411315512183478e+02
2.304853071187019964e+02 1.338727048726096655e+03 1.196293129001236366e+02
2.327326077350217020e+02 1.339093978455754723e+03 1.193174983883588993e+02
2.349799381842020694e+02 1.339460913056395839e+03 1.190056797372641881e+02
2.376736813245339590e+02 1.344825544641850911e+03 1.197453851178282207e+02
2.403844321997389102e+02 1.350192954594244839e+03 1.204827230612638118e+02
2.426487716035697986e+02 1.350562666344986155e+03 1.201685444059705219e+02
2.453850371305280760e+02 1.355934240805691616e+03 1.209023497760380792e+02
2.482344029636663549e+02 1.362309244376524020e+03 1.218431506633741606e+02
2.514953509859076348e+02 1.372691296798414214e+03 1.236176124835384371e+02
2.537954092023270505e+02 1.373066840565642906e+03 1.232984778183427466e+02
2.567026353160934491e+02 1.379451291318118592e+03 1.242312505518023045e+02
2.590128989033476046e+02 1.379828501375088308e+03 1.239106998843587917e+02
2.618461453105413739e+02 1.385215910463305590e+03 1.246310490903504729e+02
2.646963994428301703e+02 1.390606097916865338e+03 1.253490308605703945e+02
2.676716626047541467e+02 1.397001656054499335e+03 1.262723710088087614e+02
2.705576355496316410e+02 1.402397675524546685e+03 1.269853967691262824e+02
2.729036179299182550e+02 1.402780717594810767e+03 1.266598900944938464e+02
2.759282356753676595e+02 1.409184335555876487e+03 1.275763746580250881e+02
2.788584331201582813e+02 1.414587574399026153e+03 1.282832718406275490e+02
2.812231253583829584e+02 1.414973671335677636e+03 1.279551691602912911e+02
2.835878474392462749e+02 1.415359773144908786e+03 1.276270623392682637e+02
2.866719965161944970e+02 1.421773111129728477e+03 1.285352868894612470e+02
2.890468941252539139e+02 1.422160874356120758e+03 1.282057682068771669e+02
2.921616593342623673e+02 1.428579211213355620e+03 1.291097447476133198e+02
2.951718287046380169e+02 1.433995507533917134e+03 1.298055457703383695e+02
2.975654361618574626e+02 1.434386325625100426e+03 1.294734310834072062e+02
2.999590734617154340e+02 1.434777148588863156e+03 1.291413122557893303e+02
3.192010128284421455e+01 1.219042353608359917e+03 1.252250983589899533e+02
3.401600727949917768e+01 1.219384564265517383e+03 1.249342899552073050e+02
3.611191328593220362e+01 1.219726774924271240e+03 1.246434815500679747e+02
3.820782674324684081e+01 1.220068986799573622e+03 1.243526721111136339e+02
4.004730838208337218e+01 1.224310468315970866e+03 1.249812783741949147e+02
4.215002542321383316e+01 1.224653791051632652e+03 1.246895249332898175e+02
4.425273500368463431e+01 1.224997112569149522e+03 1.243977725275563557e+02
4.635545204481508108e+01 1.225340435304811308e+03 1.241060190866512585e+02
4.845816162528588222e+01 1.225683756822327950e+03 1.238142666809177967e+02
5.056087866641634321e+01 1.226027079557989737e+03 1.235225132400126995e+02
5.266358824688714435e+01 1.226370401075506607e+03 1.232307608342792946e+02
5.476630529779566814e+01 1.226713723812764783e+03 1.229390073920174586e+02
5.686901487826646928e+01 1.227057045330281426e+03 1.226472549862840538e+02
5.877654724563496558e+01 1.231309637883365212e+03 1.232664191538443674e+02
6.088606787058125036e+01 1.231654071479386403e+03 1.229737217109884568e+02
6.299558849552753514e+01 1.231998505075407365e+03 1.226810242681326031e+02
6.510510165981418140e+01 1.232342937453283639e+03 1.223883278604483849e+02
6.721462228476046619e+01 1.232687371049304602e+03 1.220956304175925311e+02
6.932414289992868817e+01 1.233031804643729174e+03 1.218029329760933592e+02
7.158800432354102838e+01 1.229460299607333809e+03 1.206049850406349719e+02
7.354317668916161210e+01 1.233720670617626411e+03 1.212175391255532304e+02
7.579343095492035332e+01 1.230146943862108856e+03 1.200214791926397311e+02
7.803007805143596443e+01 1.226570995387465018e+03 1.188273072538877955e+02
8.012599150875058740e+01 1.226913207262767401e+03 1.185364978149334547e+02
8.222189750540555053e+01 1.227255417919924867e+03 1.182456894111508063e+02
8.431780351183859068e+01 1.227597628578678723e+03 1.179548810060114192e+02
8.641371696915321365e+01 1.227939840453981105e+03 1.176640715670571353e+02
8.850962296580817679e+01 1.228282051111138571e+03 1.173732631632744301e+02
9.060552897224121693e+01 1.228624261769892428e+03 1.170824547581350998e+02
9.280931308454889006e+01 1.224057662171726861e+03 1.156718874846421272e+02
9.489671460387859270e+01 1.224398484253834113e+03 1.153822590829587966e+02
9.698411612320828112e+01 1.224739306335941592e+03 1.150926306812754092e+02
9.907151765231603235e+01 1.225080128419645462e+03 1.148030022782353399e+02
1.011589191716457208e+02 1.225420950501752714e+03 1.145133738765519524e+02
1.032463207007534720e+02 1.225761772585456583e+03 1.142237454735118831e+02
1.053337222200831889e+02 1.226102594667564063e+03 1.139341170718285525e+02
1.074211237394129057e+02 1.226443416749671314e+03 1.136444886701451651e+02
1.095403866746832051e+02 1.222848302286178978e+03 1.124666038647931146e+02
1.116209846101970840e+02 1.223188013507926826e+03 1.121779194650604836e+02
1.137015825554889972e+02 1.223527724731271292e+03 1.118892350639712276e+02
1.157821805007809104e+02 1.223867435954615985e+03 1.116005506628819148e+02
1.178627784362947892e+02 1.224207147176363833e+03 1.113118662631492839e+02
1.199433763815867309e+02 1.224546858399708299e+03 1.110231818620600279e+02
1.220329493253742328e+02 1.228829173765502219e+03 1.116170877839481363e+02
1.241045722623924945e+02 1.225226280844800840e+03 1.104458130612381410e+02
1.261851702076844361e+02 1.225565992068145306e+03 1.101571286601488282e+02
1.282657681431983292e+02 1.225905703289893381e+03 1.098684442604161973e+02
1.303825554124711061e+02 1.230192462095528072e+03 1.104585741758579616e+02
1.324699569415788574e+02 1.230533284179231941e+03 1.101689457728178922e+02
1.345573584609085458e+02 1.230874106261339421e+03 1.098793173711345048e+02
1.366447599802382342e+02 1.231214928343446672e+03 1.095896889694511174e+02
1.387321615093459855e+02 1.231555750427150542e+03 1.093000605664110481e+02
1.409073251948025529e+02 1.236837326081457377e+03 1.101030458102958960e+02
1.430802569298746505e+02 1.241133251917754478e+03 1.106853856423529692e+02
1.451829665103454374e+02 1.241476573435271348e+03 1.103936332366195643e+02
1.473763089952535381e+02 1.245775831854239186e+03 1.109731410530843618e+02
1.496076171481208235e+02 1.251066574537615907e+03 1.117683362233245248e+02
1.517256347897327373e+02 1.251412395490542167e+03 1.114744598135409888e+02
1.539547110003821331e+02 1.255717488359098070e+03 1.120490095608567458e+02
1.562268418743103950e+02 1.261014894989384857e+03 1.128385481425821695e+02
1.583601824886046643e+02 1.261363217812413950e+03 1.125425456597619700e+02
1.606578404862725620e+02 1.266664793819383021e+03 1.133285347332729884e+02
1.629379435510955716e+02 1.270978218136643136e+03 1.138960044693496911e+02
1.650865922363090021e+02 1.271329040396678010e+03 1.135978779811226786e+02
1.674250717173157454e+02 1.276637281562610269e+03 1.143782030456425218e+02
1.697408935947273108e+02 1.280956537896357759e+03 1.149407167718168239e+02
1.721117062424005439e+02 1.286270056868847178e+03 1.157165631893178102e+02
1.742841674563022991e+02 1.286624767137745039e+03 1.154151326962981443e+02
1.769043559344210053e+02 1.296905428691421776e+03 1.172611611596743728e+02
1.792797389957481471e+02 1.301234409923099520e+03 1.178154107304669083e+02
1.814760127383381700e+02 1.301593008200860595e+03 1.175106762326546459e+02
1.836722864907062842e+02 1.301951606480218061e+03 1.172059417334856448e+02
1.863843543964762262e+02 1.312247268303684905e+03 1.190392294550646852e+02
1.888640392674098507e+02 1.317578563471827920e+03 1.197999697764367397e+02
1.913607318748279340e+02 1.322912637005317265e+03 1.205583426704203021e+02
1.935910384480384323e+02 1.323276792019568347e+03 1.202488860938674975e+02
1.958213450310269650e+02 1.323640947035416048e+03 1.199394295159580111e+02
1.983520704576759499e+02 1.328980577305391535e+03 1.206930803228178206e+02
2.002819581872259391e+02 1.324369257065514830e+03 1.193205163614957200e+02
2.028296925685255019e+02 1.329711664485590290e+03 1.200718071641569509e+02
2.050685036190612323e+02 1.330077208074891587e+03 1.197611705855048854e+02
2.073073296006943451e+02 1.330442754102079107e+03 1.194505319351527532e+02
2.092031695783045961e+02 1.325825874689422335e+03 1.180826921229145228e+02
2.114334910826124485e+02 1.326190032141559868e+03 1.177732334746616516e+02
2.140237478407602794e+02 1.331539382435289326e+03 1.185186242681831459e+02
2.162625738223933922e+02 1.331904928462476846e+03 1.182079856178310138e+02
2.185013699516098313e+02 1.332270469615488310e+03 1.178973511095222761e+02
2.207401959332429442e+02 1.332636015642675829e+03 1.175867124591701440e+02
2.229789920722374177e+02 1.333001556797283683e+03 1.172760779495047245e+02
2.252178180440924393e+02 1.333367102822874813e+03 1.169654393005092743e+02
2.278676073828508493e+02 1.338726171928309213e+03 1.177025775095522135e+02
2.301149378320311598e+02 1.339093106528950329e+03 1.173907588584575024e+02
2.323622384483508654e+02 1.339460036258608397e+03 1.170789443466927651e+02
2.350460742997154284e+02 1.344824665750468284e+03 1.178113509764353921e+02
2.377469191073418813e+02 1.350192072390836074e+03 1.185413976117193329e+02
2.400112585209508609e+02 1.350561784143173782e+03 1.182272189550693042e+02
2.427376179884972203e+02 1.355933355295042020e+03 1.189537330058886369e+02
2.455750965526192431e+02 1.362308354895270895e+03 1.198857843118033770e+02
2.478581458046101034e+02 1.362681121510802996e+03 1.195690096521630039e+02
2.511162894315112339e+02 1.373065945681953735e+03 1.213265213883190086e+02
2.540116282860392971e+02 1.379450392465422283e+03 1.222505445390005434e+02
2.563218918635154182e+02 1.379827602520795153e+03 1.219299938729137693e+02
2.591452322112972979e+02 1.385215008300175441e+03 1.226430517596571121e+02
2.614640002758767423e+02 1.385593606932195144e+03 1.223213210901143384e+02
2.643128528260789949e+02 1.390985179651967883e+03 1.230308315389866607e+02
2.678250218329919790e+02 1.402396763988380599e+03 1.249740597869419503e+02
2.701710042230567410e+02 1.402779806060241299e+03 1.246485531109527756e+02
2.725169866033433550e+02 1.403162848130505381e+03 1.243230464363202827e+02
2.755399224506111295e+02 1.409568128410708141e+03 1.252293654161824747e+02
2.784687183133151507e+02 1.414972752520070571e+03 1.259277912774372794e+02
2.815307735306348036e+02 1.421384421461384591e+03 1.268286748155269379e+02
2.839056711396942205e+02 1.421772184687776871e+03 1.264991561329428578e+02
2.862805985816142424e+02 1.422159952785152200e+03 1.261696333110288037e+02
2.893834765118283485e+02 1.428578285670186915e+03 1.270648602717002973e+02
2.917685795015005397e+02 1.428967715187916383e+03 1.267339255855117131e+02
2.941536824813946396e+02 1.429357144704049460e+03 1.264029909006798675e+02
2.971709547470090342e+02 1.434776214865874181e+03 1.270891405999580570e+02
2.995645920468670056e+02 1.435167037829636911e+03 1.267570217723401242e+02
3.193063936859961416e+01 1.214513829275117587e+03 1.219918497368959720e+02
3.367059107090248915e+01 1.219725959470086082e+03 1.228465551520288273e+02
3.576649707733551509e+01 1.220068170128839938e+03 1.225557467468894401e+02
3.786241053465015227e+01 1.220410382004142321e+03 1.222649373079350994e+02
3.995831653130511540e+01 1.220752592661299786e+03 1.219741289041524510e+02
4.205422253773814134e+01 1.221094803320053643e+03 1.216833204990130639e+02
4.415012853439310447e+01 1.221437013977211109e+03 1.213925120952304155e+02
4.624604199170774166e+01 1.221779225852513491e+03 1.211017026562761316e+02
4.834194799814076760e+01 1.222121436511267575e+03 1.208108942511367445e+02
5.043785399479573073e+01 1.222463647168424814e+03 1.205200858473540961e+02
5.253376745211036791e+01 1.222805859043727196e+03 1.202292764083997554e+02
5.462967345854339385e+01 1.223148069702481280e+03 1.199384680032603683e+02
5.672557945519837119e+01 1.223490280359638518e+03 1.196476595994777199e+02
5.882149291251299417e+01 1.223832492234940901e+03 1.193568501605233791e+02
6.091739891894602010e+01 1.224174702893694985e+03 1.190660417553840489e+02
6.301330491560099745e+01 1.224516913550852450e+03 1.187752333516013437e+02
6.510921837291562042e+01 1.224859125426154606e+03 1.184844239126470598e+02
6.703604022735150636e+01 1.229116158772012795e+03 1.190939790250689043e+02
6.930103037600360949e+01 1.225543546742066155e+03 1.179028071037250243e+02
7.139693638243664964e+01 1.225885757400820012e+03 1.176119986985856372e+02
7.349284983975127261e+01 1.226227969276122394e+03 1.173211892596312964e+02
7.558875583640622153e+01 1.226570179933279860e+03 1.170303808558486480e+02
7.768466184283926168e+01 1.226912390592033717e+03 1.167395724507092609e+02
7.978057530015388465e+01 1.227254602467336099e+03 1.164487630117549770e+02
8.187648129680886200e+01 1.227596813124493565e+03 1.161579546079723286e+02
8.411569236116388026e+01 1.223034383778459869e+03 1.147511376122581055e+02
8.620309388049356869e+01 1.223375205860567121e+03 1.144615092105747181e+02
8.829049540960133413e+01 1.223716027944270991e+03 1.141718808075346487e+02
9.037789692893103677e+01 1.224056850026378470e+03 1.138822524058512613e+02
9.246529845803878800e+01 1.224397672110082340e+03 1.135926240028111920e+02
9.455269997736849064e+01 1.224738494192189592e+03 1.133029956011278614e+02
9.664010149669817906e+01 1.225079316274297071e+03 1.130133671994444740e+02
9.879451852858048255e+01 1.221488650334006024e+03 1.118375373743779733e+02
1.008751164640943330e+02 1.221828361555754100e+03 1.115488529746453423e+02
1.029557144093862462e+02 1.222168072779098566e+03 1.112601685735560864e+02
1.050362974333588681e+02 1.222507781566153199e+03 1.109714862428101014e+02
1.071168953688727470e+02 1.222847492787901274e+03 1.106828018430775273e+02
1.092304759863188082e+02 1.219250159250760589e+03 1.095126380987022685e+02
1.113042703477949118e+02 1.219588759613745879e+03 1.092248976995637690e+02
1.133780647092709870e+02 1.219927359976730941e+03 1.089371573004252127e+02
1.154518590707470906e+02 1.220265960339716003e+03 1.086494169012867133e+02
1.175256534224451315e+02 1.220604560701104674e+03 1.083616765035048957e+02
1.196004830210681860e+02 1.224885760124775061e+03 1.089506954392551279e+02
1.216810809565820364e+02 1.225225471346523136e+03 1.086620110395225538e+02
1.237616789018739496e+02 1.225565182569867602e+03 1.083733266384332410e+02
1.258422768471658912e+02 1.225904893793212068e+03 1.080846422373439282e+02
1.279228747826797701e+02 1.226244605014960143e+03 1.077959578376113541e+02
1.300034727279716833e+02 1.226584316238304609e+03 1.075072734365220413e+02
1.321259423150687553e+02 1.230873294117587420e+03 1.080896822909869570e+02
1.342133438343984437e+02 1.231214116199694899e+03 1.078000538893035696e+02
1.363007453537281322e+02 1.231554938281802151e+03 1.075104254876201821e+02
1.384660029797728384e+02 1.236836510627272219e+03 1.083061194122567485e+02
1.405619089862058502e+02 1.237178721286026075e+03 1.080153110071174183e+02
1.427337194552863764e+02 1.241475755335611893e+03 1.085908737801483994e+02
1.449191358640545104e+02 1.245775012319566031e+03 1.091645411274446928e+02
1.470286490283411638e+02 1.246119444697442304e+03 1.088718447197604746e+02
1.492585568270658882e+02 1.251411571433382505e+03 1.096585759904862698e+02
1.513765744686778021e+02 1.251757392386308766e+03 1.093646995807027338e+02
1.534946070316090072e+02 1.252103215775524859e+03 1.090708211005759267e+02
1.557293493994297933e+02 1.256410526495084923e+03 1.096376444270417210e+02
1.580085968603605693e+02 1.261710710618166786e+03 1.104175221834037188e+02
1.603048545054973602e+02 1.267013670676106585e+03 1.111950473671403756e+02
1.625838350763847586e+02 1.271328204420305156e+03 1.117557326223578116e+02
1.647324837615981892e+02 1.271679026680340030e+03 1.114576061341307991e+02
1.672203055353618879e+02 1.280955695965673613e+03 1.130854470353716010e+02
1.695812108940677376e+02 1.286269212844568074e+03 1.138539947020511249e+02
1.719591264272015678e+02 1.291585505656724081e+03 1.146201897974619897e+02
1.741400921184285835e+02 1.291941604500672156e+03 1.143175793023430629e+02
1.765435198653722750e+02 1.297262064253224480e+03 1.150802269682661176e+02
1.789177804311523516e+02 1.301592154913433205e+03 1.156276920484594370e+02
1.813535264120536397e+02 1.306917890036248991e+03 1.163858631293236954e+02
1.838062950491473657e+02 1.312246405962293466e+03 1.171416647027162412e+02
1.862760726327250609e+02 1.317577699035248997e+03 1.178951062830067826e+02
1.884978747286102703e+02 1.317940465474450093e+03 1.175868297085532959e+02
1.909931657523302988e+02 1.323275924275744956e+03 1.183367312714493664e+02
1.932234723255407687e+02 1.323640079289996038e+03 1.180272746948965619e+02
1.954537789085293014e+02 1.324004234305843738e+03 1.177178181169870754e+02
1.976840854817397712e+02 1.324368389320094821e+03 1.174083615404342709e+02
1.999143920647282755e+02 1.324732544335942521e+03 1.170989049625247844e+02
2.021446986379387454e+02 1.325096699350193603e+03 1.167894483859719799e+02
2.043750052209272781e+02 1.325460854366041076e+03 1.164799918080624934e+02
2.066053117941377195e+02 1.325825009380292386e+03 1.161705352315097457e+02
2.088356034558069325e+02 1.326189161959850026e+03 1.158610807239435871e+02
2.110659249601147849e+02 1.326553319411987559e+03 1.155516220756907160e+02
2.132962166120059635e+02 1.326917471989948808e+03 1.152421675694812961e+02
2.158936061178091563e+02 1.332269600999117529e+03 1.159779028975124788e+02
2.177568297682048808e+02 1.327645782020047591e+03 1.146232544150190051e+02
2.203712282286587083e+02 1.333000688179316512e+03 1.153566297388516659e+02
2.226100243676531818e+02 1.333366229333924366e+03 1.150459952291861896e+02
2.248488503395082034e+02 1.333731775359515495e+03 1.147353565801907962e+02
2.270876464785027338e+02 1.334097316514123349e+03 1.144247220705253767e+02
2.297445673174162835e+02 1.339459165545453288e+03 1.151521973949581934e+02
2.319918679337359890e+02 1.339826095275111356e+03 1.148403828831934561e+02
2.346743034325694452e+02 1.345192108817941971e+03 1.155643256231616078e+02
2.373737466564978718e+02 1.350560900726115278e+03 1.162859009273580568e+02
2.400901988464664782e+02 1.355932469784392651e+03 1.170051162357391377e+02
2.423630427276225987e+02 1.356303570110183955e+03 1.166897575783465300e+02
2.451988393919514806e+02 1.362680232031142395e+03 1.176116432908522711e+02
2.474818886439423409e+02 1.363052998646674496e+03 1.172948686312118980e+02
2.507372291082817810e+02 1.373440593348658467e+03 1.190354377344127101e+02
2.536308848334612662e+02 1.379826703668098844e+03 1.199492878601120083e+02
2.564443191234427672e+02 1.385214106137048930e+03 1.206550544373470188e+02
2.587630871782441773e+02 1.385592704767472242e+03 1.203333237691609838e+02
2.616020336788125746e+02 1.390984274180004149e+03 1.210355428974282859e+02
2.645637252144276772e+02 1.397381493096655959e+03 1.219399530174299571e+02
2.674383917375840269e+02 1.402778893307240423e+03 1.226372235700815168e+02
2.704392038711951045e+02 1.409182499671353753e+03 1.235362056701437723e+02
2.727953916223165152e+02 1.409567208031358632e+03 1.232092829932635141e+02
2.751516092258545996e+02 1.409951921265539795e+03 1.228823561743398045e+02
2.780790022785280371e+02 1.415357931854764729e+03 1.235723032924138352e+02
2.811393768256100998e+02 1.421771261901566049e+03 1.244630286686675618e+02
2.835142744346695167e+02 1.422159025127958330e+03 1.241335099860835385e+02
2.858892018765895386e+02 1.422546793225333658e+03 1.238039871641694276e+02
2.882640994856489556e+02 1.422934556451725939e+03 1.234744684815853475e+02
2.913754996687386551e+02 1.429356219162477146e+03 1.243581064234101063e+02
2.937606026486327551e+02 1.429745648678610223e+03 1.240271717385782608e+02
2.961457354711655512e+02 1.430135083067322967e+03 1.236962329130596459e+02
2.985308384510597079e+02 1.430524512583456044e+03 1.233652982282277435e+02
2.494153968141887390e+01 1.218698510216416480e+03 1.219220555271567150e+02
2.703744940351464265e+01 1.219040721481848095e+03 1.216312466064665614e+02
2.949922321459322916e+01 1.214513017128176671e+03 1.202022146678450554e+02
3.158662474370098039e+01 1.214853839211880540e+03 1.199125862648049861e+02
3.332517486391726891e+01 1.220067354673061800e+03 1.207588203585902420e+02
3.542108087035029484e+01 1.220409565331815656e+03 1.204680119534508549e+02
3.751699432766493203e+01 1.220751777207118039e+03 1.201772025144965141e+02
3.961290032431989516e+01 1.221093987864275505e+03 1.198863941107138658e+02
4.170880633075292110e+01 1.221436198523029361e+03 1.195955857055744787e+02
4.380471232740788423e+01 1.221778409180186827e+03 1.193047773017918303e+02
4.590062578472252142e+01 1.222120621055489210e+03 1.190139678628375464e+02
4.799653179115554735e+01 1.222462831714243293e+03 1.187231594576981593e+02
5.009243778781051049e+01 1.222805042371400532e+03 1.184323510539155109e+02
5.218835124512514767e+01 1.223147254246702914e+03 1.181415416149611701e+02
5.454804895609954940e+01 1.218602883339592381e+03 1.167266728056894181e+02
5.663545047542923783e+01 1.218943705421699860e+03 1.164370444040060875e+02
5.872285200453698906e+01 1.219284527505403730e+03 1.161474160009659613e+02
6.081025352386669169e+01 1.219625349587510982e+03 1.158577875992826307e+02
6.266788870861577720e+01 1.224858308753828169e+03 1.166874985581627584e+02
6.476380216593040018e+01 1.225200520629130324e+03 1.163966891192084745e+02
6.685970817236341190e+01 1.225542731287884408e+03 1.161058807140690874e+02
6.895561416901838925e+01 1.225884941945041874e+03 1.158150723102864390e+02
7.105152017545142940e+01 1.226227152603795730e+03 1.155242639051470519e+02
7.314743363276605237e+01 1.226569364479098112e+03 1.152334544661927112e+02
7.542207164916840156e+01 1.222011105385196970e+03 1.138303877482572375e+02
7.750947316849810420e+01 1.222351927467304222e+03 1.135407593465739069e+02
7.959687468782780684e+01 1.222692749549411701e+03 1.132511309448905195e+02
8.168427621693555807e+01 1.223033571633115571e+03 1.129615025418504501e+02
8.377167773626524649e+01 1.223374393715222823e+03 1.126718741401670627e+02
8.585907925559493492e+01 1.223715215797330075e+03 1.123822457384837321e+02
8.794648078470270036e+01 1.224056037881033944e+03 1.120926173354436628e+02
9.012923339828377323e+01 1.220468707165698561e+03 1.109197885643134782e+02
9.220983134357568645e+01 1.220808418389043027e+03 1.106311041632242222e+02
9.437215952211202818e+01 1.217217751444286478e+03 1.094611168887662416e+02
9.637102722438147850e+01 1.221487840834135568e+03 1.100537353624022785e+02
9.851974824506423545e+01 1.217894952170256829e+03 1.088856360904891858e+02
1.005935426065403107e+02 1.218233552533241891e+03 1.085978956913506295e+02
1.026673369680164143e+02 1.218572152896227180e+03 1.083101552922121300e+02
1.047411313197144551e+02 1.218910753257615852e+03 1.080224148944303124e+02
1.067740020099656846e+02 1.223186394511375283e+03 1.086103154300125766e+02
1.089313431219113966e+02 1.214665260941001634e+03 1.063535609914474662e+02
1.109966330060622113e+02 1.215002472728936709e+03 1.060670005944082277e+02
1.130619079688936921e+02 1.215339682080581952e+03 1.057804422677123171e+02
1.151271978530445352e+02 1.215676893868517027e+03 1.054938818706730785e+02
1.171838825574736660e+02 1.220942352997640228e+03 1.062959745712992117e+02
1.192576769189497412e+02 1.221280953360625290e+03 1.060082341721606554e+02
1.213314712804258733e+02 1.221619553723610579e+03 1.057204937730221559e+02
1.234052507205826288e+02 1.221958151650305808e+03 1.054327554442269843e+02
1.254993834882588288e+02 1.226243795516686077e+03 1.060121558242789774e+02
1.275799814237727077e+02 1.226583506738434153e+03 1.057234714245464033e+02
1.296605793690646351e+02 1.226923217961778619e+03 1.054347870234570905e+02
1.317411773045784855e+02 1.227262929183526694e+03 1.051461026237245164e+02
1.338693292094997958e+02 1.231554126136457853e+03 1.057207904172125268e+02
1.359567307288294842e+02 1.231894948218565105e+03 1.054311620155291962e+02
1.381205867727876182e+02 1.237177905830247937e+03 1.062183846188181633e+02
1.402164927792206299e+02 1.237520116489001794e+03 1.059275762136788330e+02
1.423871807527540909e+02 1.241818259967118820e+03 1.064963544961105981e+02
1.444898903332248778e+02 1.242161581484635690e+03 1.062046020903771932e+02
1.467914776348435453e+02 1.251410748591464881e+03 1.078426847358583132e+02
1.489094952764554307e+02 1.251756569544391141e+03 1.075488083260748340e+02
1.510275129180673446e+02 1.252102390497317401e+03 1.072549319162913548e+02
1.532543453671781037e+02 1.256409701007693457e+03 1.078159201139817469e+02
1.555236718489891530e+02 1.261709879384055512e+03 1.085885086311788541e+02
1.578100221953805544e+02 1.267012837346803963e+03 1.093587350654507304e+02
1.600810791541826461e+02 1.271327367231878952e+03 1.099135946840693805e+02
1.622297278296180139e+02 1.271678189490317436e+03 1.096154681971991067e+02
1.646997174759964651e+02 1.280954854034989467e+03 1.112301772989264350e+02
1.670507167752904536e+02 1.286268367605046933e+03 1.119914336463576774e+02
1.692231779891921803e+02 1.286623077873944794e+03 1.116900031533380115e+02
1.715996907122954269e+02 1.291940757165963305e+03 1.124477195055680454e+02
1.737806564035224426e+02 1.292296856009911380e+03 1.121451090104491186e+02
1.765805948944432089e+02 1.306557044149287094e+03 1.148015041974918518e+02
1.787853880356778973e+02 1.306917033438387989e+03 1.144955876272369437e+02
1.809901662653712719e+02 1.307277020292795669e+03 1.141896731259686817e+02
1.831949594163839947e+02 1.307637009583492954e+03 1.138837565543570349e+02
1.856548297109942496e+02 1.312968300562853528e+03 1.146298993838261708e+02
1.878681124180129132e+02 1.313329675992311195e+03 1.143228048804585910e+02
1.903535122938624227e+02 1.318665133919462278e+03 1.150654130551197341e+02
1.928559062046545591e+02 1.324003366558830976e+03 1.158056633056655187e+02
1.947971015740915277e+02 1.319390664363171027e+03 1.144488619751993497e+02
1.973165193608535901e+02 1.324731676588929759e+03 1.151867501512032845e+02
1.992407057756399524e+02 1.320116197243169609e+03 1.138323088249356942e+02
2.014625078813032246e+02 1.320478963683967322e+03 1.135240322491254688e+02
2.036842950656471487e+02 1.320841727688474975e+03 1.132157577436586280e+02
2.059060971615323297e+02 1.321204494127676071e+03 1.129074811692051412e+02
2.081278843458762537e+02 1.321567258132183724e+03 1.125992066637382436e+02
2.103497013630807828e+02 1.321930027007674653e+03 1.122909280189414289e+02
2.129286504911197824e+02 1.327280759258783746e+03 1.130205561802502530e+02
2.151589719954276063e+02 1.327644916710921279e+03 1.127110975319974386e+02
2.173892636473186997e+02 1.328009069288882529e+03 1.124016430257880188e+02
2.200022605256859265e+02 1.333365360714364215e+03 1.131265470282730803e+02
2.222410566646804000e+02 1.333730901868972069e+03 1.128159125186076039e+02
2.244798826365354216e+02 1.334096447894563198e+03 1.125052738696122105e+02
2.267186787755299520e+02 1.334461989049171052e+03 1.121946393599467910e+02
2.293741980307454469e+02 1.339825223348306736e+03 1.129136433532920591e+02
2.316214986470651525e+02 1.340192153077964804e+03 1.126018288415273219e+02
2.343025313358679966e+02 1.345559553100657922e+03 1.133172928383146996e+02
2.370005729777097940e+02 1.350929730275044221e+03 1.140303968211636061e+02
2.397156235839803458e+02 1.356302684601127112e+03 1.147411407984571383e+02
2.419884674651364662e+02 1.356673784926918415e+03 1.144257821410645306e+02
2.448225810033397352e+02 1.363052110380663407e+03 1.153374948480679336e+02
2.475818847226066168e+02 1.368432290167670544e+03 1.160420986753865122e+02
2.509398790247960278e+02 1.379825803596970673e+03 1.179685892899801161e+02
2.532501426120502401e+02 1.380203013653940388e+03 1.176480386225366033e+02
2.560621740887781357e+02 1.385591802605938483e+03 1.183453264371109412e+02
2.583809421435795457e+02 1.385970401236361795e+03 1.180235957689248494e+02
2.612184858325059054e+02 1.391363357130348959e+03 1.187173361442714281e+02
2.647057780209443649e+02 1.402777981771074337e+03 1.206258865878971278e+02
2.670517604110090701e+02 1.403161023842935037e+03 1.203003799119079531e+02
2.700508906480500286e+02 1.409566292524592427e+03 1.211891964380411082e+02
2.724070783991714393e+02 1.409951000884597306e+03 1.208622737611607931e+02
2.753245952432382069e+02 1.415357013040754055e+03 1.215449254082031985e+02
2.776892874716849064e+02 1.415743109975809148e+03 1.212168227292236224e+02
2.807479788910298453e+02 1.422158103556989772e+03 1.220973750902351185e+02
2.831228765000892622e+02 1.422545866783382053e+03 1.217678564076510384e+02
2.854978039420092841e+02 1.422933634880757381e+03 1.214383335857369843e+02
2.878727015510687011e+02 1.423321398107149662e+03 1.211088149031529042e+02
2.909824210655323213e+02 1.429744721921795644e+03 1.219822946928816805e+02
2.933675240454264213e+02 1.430134151437928722e+03 1.216513600080498350e+02
2.957526568679592174e+02 1.430523585826641465e+03 1.213204211825312200e+02
2.459612224487814558e+01 1.219039906634634463e+03 1.198343133021450058e+02
2.669203196697391434e+01 1.219382117900066078e+03 1.195435043814548521e+02
2.915520858808312710e+01 1.214853027066532377e+03 1.181229511860141201e+02
3.124261011719087833e+01 1.215193849150236247e+03 1.178333227829740508e+02
3.333001163652058096e+01 1.215534671232343499e+03 1.175436943812906634e+02
3.507566343380956653e+01 1.220750961750033639e+03 1.183802697284391456e+02
3.717157689112420371e+01 1.221093173625336021e+03 1.180894602894848049e+02
3.926748288777916684e+01 1.221435384282493487e+03 1.177986518857021565e+02
4.167961773339547449e+01 1.216897959563965969e+03 1.163851807718438067e+02
4.376701925272519134e+01 1.217238781646073448e+03 1.160955523701604193e+02
4.585442077205487976e+01 1.217579603728180700e+03 1.158059239684770318e+02
4.794182230116263099e+01 1.217920425811884570e+03 1.155162955654369625e+02
5.002922382049231942e+01 1.218261247893992049e+03 1.152266671637536319e+02
5.211663280048168190e+01 1.218602071194244218e+03 1.149370377268985521e+02
5.420403432958944734e+01 1.218942893277948087e+03 1.146474093238584828e+02
5.649678044220048889e+01 1.215372230546573746e+03 1.134662515142687766e+02
5.857737837771435352e+01 1.215711941768321822e+03 1.131775671145362026e+02
6.065797632300628095e+01 1.216051652991666288e+03 1.128888827134468897e+02
6.273857426829820838e+01 1.216391364215010753e+03 1.126001983123575769e+02
6.481917220381207301e+01 1.216731075436758829e+03 1.123115139126250028e+02
6.689977014910400044e+01 1.217070786660103295e+03 1.120228295115356900e+02
6.881584499423149737e+01 1.221328647857489159e+03 1.126200105080047820e+02
7.090324651356118579e+01 1.221669469939596411e+03 1.123303821063214514e+02
7.299064803289087422e+01 1.222010292021703890e+03 1.120407537046380639e+02
7.507805702265829950e+01 1.222351115323552676e+03 1.117511242664263023e+02
7.730275239534785214e+01 1.218769341555487927e+03 1.105794085439742958e+02
7.925286006131770478e+01 1.223032759487767407e+03 1.111718674630595842e+02
8.146394827615364420e+01 1.219448764000580240e+03 1.100020397431524088e+02
8.354454622144555742e+01 1.219788475223924706e+03 1.097133553420630960e+02
8.562514415695943626e+01 1.220128186445672782e+03 1.094246709423304651e+02
8.780901181359449481e+01 1.216539745086850417e+03 1.082586276858745578e+02
8.988280617507059844e+01 1.216878345449835479e+03 1.079708872867360583e+02
9.195659306610896522e+01 1.217216944593079234e+03 1.076831479241259331e+02
9.403038742758505464e+01 1.217555544956064296e+03 1.073954075249873767e+02
9.610418178906118669e+01 1.217894145319049585e+03 1.071076671258488773e+02
9.817797615053726190e+01 1.218232745682034647e+03 1.068199267267103210e+02
1.003298280039650763e+02 1.213652824472712609e+03 1.054425624654730882e+02
1.023255648734894407e+02 1.218909946408004998e+03 1.062444459284332652e+02
1.043993592251874816e+02 1.219248546769393670e+03 1.059567055306514476e+02
1.064731386653442655e+02 1.219587144696088899e+03 1.056689672018562760e+02
1.085909726094710095e+02 1.215001669186566460e+03 1.042963229490162007e+02
1.106846704205679686e+02 1.211398505277139748e+03 1.031427908208705162e+02
1.127431567209029453e+02 1.211734606204715647e+03 1.028571744257820342e+02
1.148016430310160132e+02 1.212070707133887709e+03 1.025715580293368703e+02
1.168601144100316986e+02 1.212406805625173547e+03 1.022859437045917730e+02
1.189186007103667038e+02 1.212742906552749218e+03 1.020003273095032910e+02
1.209826820619592525e+02 1.217024935040000628e+03 1.025769647088242209e+02
1.230479719461100672e+02 1.217362146827935703e+03 1.022904043117849824e+02
1.251372729875317589e+02 1.222634545525068688e+03 1.030793056813096200e+02
1.272110673490078625e+02 1.222973145888053978e+03 1.027915652821710637e+02
1.293176860085460760e+02 1.227262119686845381e+03 1.033623006006521905e+02
1.314379130636600053e+02 1.231553313992706080e+03 1.039311553370649790e+02
1.335253145829896937e+02 1.231894136074813559e+03 1.036415269353815916e+02
1.356792633395919268e+02 1.237177091591308454e+03 1.044214507975891024e+02
1.377751693362469041e+02 1.237519302248465920e+03 1.041306423938064540e+02
1.399379336993065124e+02 1.241817441865866840e+03 1.046935950493794394e+02
1.420406432797772993e+02 1.242160763383383483e+03 1.044018426436459777e+02
1.442238171565622906e+02 1.246462236793915508e+03 1.049619558728901438e+02
1.464424160842330878e+02 1.251755746702473743e+03 1.057329170714468773e+02
1.485604337258449732e+02 1.252101567655400004e+03 1.054390406616633982e+02
1.507793264054405427e+02 1.256408873080823014e+03 1.059941978823618456e+02
1.530387617475475679e+02 1.261709050586230433e+03 1.067594930002273372e+02
1.551720874503005518e+02 1.262057370974566084e+03 1.064634925863937838e+02
1.574570362146053526e+02 1.267361714203527526e+03 1.072252476993181176e+02
1.597269706794718331e+02 1.271677353515540972e+03 1.077733228370775009e+02
1.618756193549072009e+02 1.272028175773979456e+03 1.074751963502072272e+02
1.643430861532075369e+02 1.281307333798153195e+03 1.090746570715608641e+02
1.666926838704149247e+02 1.286622232634423654e+03 1.098274420976445640e+02
1.688651450843166515e+02 1.286976942903321515e+03 1.095260116046249550e+02
1.712402562253332974e+02 1.292296007461553017e+03 1.102752566355073895e+02
1.736323750996115223e+02 1.297617850388315674e+03 1.110221342195214334e+02
1.759975758578288492e+02 1.301949042963211014e+03 1.115569986855299476e+02
1.784220266610514614e+02 1.307276164908584178e+03 1.122993902020486985e+02
1.806268048907448360e+02 1.307636151762991858e+03 1.119934757007803796e+02
1.828315980417575588e+02 1.307996141053689144e+03 1.116875591291687897e+02
1.852900679822252812e+02 1.313328816085612971e+03 1.124252380591235578e+02
1.875033506892439448e+02 1.313690191515070637e+03 1.121181435557559780e+02
1.897166483078038652e+02 1.314051569379221519e+03 1.118110469834017522e+02
1.919299459361418485e+02 1.314412947244969018e+03 1.115039504096908445e+02
1.941432286431605121e+02 1.314774322674426685e+03 1.111968559063233215e+02
1.963565262617204041e+02 1.315135700538577794e+03 1.108897593339690957e+02
1.985698238900583874e+02 1.315497078404325066e+03 1.105826627602581880e+02
2.007831065970770510e+02 1.315858453833782733e+03 1.102755682568906082e+02
2.029964042156369715e+02 1.316219831697933841e+03 1.099684716845364392e+02
2.055399338522882431e+02 1.321566394915055753e+03 1.106943485328948782e+02
2.077617210366321672e+02 1.321929158919563406e+03 1.103860740274279806e+02
2.099835380538366962e+02 1.322291927795054335e+03 1.100777953826311659e+02
2.122053252381806487e+02 1.322654691799561988e+03 1.097695208771643252e+02
2.147914071024854366e+02 1.328008202766106706e+03 1.104894935645996270e+02
2.170216987543765299e+02 1.328372355344067955e+03 1.101800390583902072e+02
2.192519904160457713e+02 1.328736507923625823e+03 1.098705845508240486e+02
2.218720889600961641e+02 1.334095574405612751e+03 1.105858297982890690e+02
2.241109149319511857e+02 1.334461120431203881e+03 1.102751911492936756e+02
2.267564982965057823e+02 1.339824346548926542e+03 1.109869079724605854e+02
2.290038287456860928e+02 1.340191281149567658e+03 1.106750893213658742e+02
2.316749553734655365e+02 1.345558677865016534e+03 1.113832619891650211e+02
2.343630897361180700e+02 1.350928852947404266e+03 1.120890672198357265e+02
2.370682342748100950e+02 1.356301803961460791e+03 1.127925198889776652e+02
2.393410483231057242e+02 1.356672899416269047e+03 1.124771653709150883e+02
2.421633044235416889e+02 1.363051225771986083e+03 1.133801243474272269e+02
2.444463238426720011e+02 1.363423987516534908e+03 1.130633538271168277e+02
2.476790490240144891e+02 1.373814346133270419e+03 1.147723976491259350e+02
2.505591355722179969e+02 1.380202114799647461e+03 1.156673326110915241e+02
2.528693991594722092e+02 1.380579324856617177e+03 1.153467819436480681e+02
2.556800278261694643e+02 1.385969500288477548e+03 1.160355910150415752e+02
2.585076666754613939e+02 1.391362451656789062e+03 1.167220475040697920e+02
2.608349392173661272e+02 1.391742438863858752e+03 1.163991368324277005e+02
2.643191466943694650e+02 1.403160112306768951e+03 1.182890429297236210e+02
2.666651290844341702e+02 1.403543154378629652e+03 1.179635362537344463e+02
2.696625774232934987e+02 1.409950085379424081e+03 1.188421871961984380e+02
2.720187651744149093e+02 1.410334793739428960e+03 1.185152645193181797e+02
2.749348804363950762e+02 1.415742191161798701e+03 1.191894448450129858e+02
2.779816547343070852e+02 1.422157175898199284e+03 1.200612517666465351e+02
2.803565821860051415e+02 1.422544943997171231e+03 1.197317289433757423e+02
2.827314797950645584e+02 1.422932707223563511e+03 1.194022102607917191e+02
2.851064072369845803e+02 1.423320475320938840e+03 1.190726874388776082e+02
2.882042382430983025e+02 1.429743796378626712e+03 1.199374102169686580e+02
2.905893412327704937e+02 1.430133225896356180e+03 1.196064755307800738e+02
2.935939030452442466e+02 1.435555064497011699e+03 1.202683838365417159e+02
2.959875105024636923e+02 1.435945882588194991e+03 1.199362691496105526e+02
1.870313593655764350e+01 1.209596331480616527e+03 1.165900864701517321e+02
2.078373388184957093e+01 1.209936042703960993e+03 1.163014020690624193e+02
2.254898505600452552e+01 1.214170570753927223e+03 1.169125697263207826e+02
2.463638657533421394e+01 1.214511392836034474e+03 1.166229413246374520e+02
2.672378810444197939e+01 1.214852214919738344e+03 1.163333129215973258e+02
2.881119334921247344e+01 1.215193037610119973e+03 1.160436840030064900e+02
3.089859487832022467e+01 1.215533859693823842e+03 1.157540555999664207e+02
3.298599639764992730e+01 1.215874681775931094e+03 1.154644271982830332e+02
3.507339792675767853e+01 1.216215503859634964e+03 1.151747987952429639e+02
3.716079944608738117e+01 1.216556325941742443e+03 1.148851703935596333e+02
3.924820096541706960e+01 1.216897148023849695e+03 1.145955419918762459e+02
4.133560249452482083e+01 1.217237970107553565e+03 1.143059135888361766e+02
4.342300401385453767e+01 1.217578792189661044e+03 1.140162851871527891e+02
4.551040553318422610e+01 1.217919614271768296e+03 1.137266567854694586e+02
4.759780706229197733e+01 1.218260436355472166e+03 1.134370283824293892e+02
4.991209387116772689e+01 1.214691997994785879e+03 1.122598220140316130e+02
5.199269181645965432e+01 1.215031709218130345e+03 1.119711376129423570e+02
5.407328975197351895e+01 1.215371420439878420e+03 1.116824532132097261e+02
5.615388769726543927e+01 1.215711131663222886e+03 1.113937688121204133e+02
5.843414852220841027e+01 1.212137138391016151e+03 1.102212797763748995e+02
6.050794288368449969e+01 1.212475738754001441e+03 1.099335393772364000e+02
6.239568152336315876e+01 1.216730265331659893e+03 1.105277156102092704e+02
6.465552414597704001e+01 1.213152938261826648e+03 1.093580596141310366e+02
6.655687740416894371e+01 1.217409687776752435e+03 1.099503468093873266e+02
6.863747533968280834e+01 1.217749398998500283e+03 1.096616624096547525e+02
7.071806582431507593e+01 1.218089109003700059e+03 1.093729790437371321e+02
7.279866376960700336e+01 1.218428820227044525e+03 1.090842946426478193e+02
