2.118439764719094569e+02 1.331035302945591411e+03 1.197676467559331286e+02
2.140337074319435260e+02 1.331701041636063110e+03 1.201734968254917533e+02
2.154696946001445212e+02 1.338354140355202617e+03 1.216107763012761040e+02
2.176692578814807177e+02 1.339022868342911124e+03 1.220184487172130048e+02
2.198688499051324925e+02 1.339691605069077468e+03 1.224261264603206882e+02
2.220684419287842672e+02 1.340360341795243585e+03 1.228338042034283433e+02
2.242680339618567302e+02 1.341029078524274155e+03 1.232414819482820860e+02
2.258804164512852140e+02 1.346699719674294101e+03 1.245162678992641645e+02
2.280882020697417261e+02 1.347370947479581446e+03 1.249254642631897241e+02
2.297251940953206031e+02 1.353049070608286684e+03 1.262048114055422161e+02
2.312660592694852539e+02 1.359734055137886116e+03 1.276615292263983292e+02
2.334918707946280279e+02 1.360410763316667271e+03 1.280740665557739817e+02
2.351714700425707179e+02 1.366101840591720475e+03 1.293613067812459008e+02
2.374055039142544388e+02 1.366781048590944692e+03 1.297753680603562145e+02
2.401693053888974418e+02 1.362440887858739188e+03 1.293116785473929440e+02
2.423951169234608187e+02 1.363117596040384569e+03 1.297242158785146273e+02
2.441075192929379796e+02 1.368818646370380293e+03 1.310175359144287768e+02
2.463415244223060085e+02 1.369497845631146902e+03 1.314315918663683362e+02
2.485755295422534346e+02 1.370177044889049284e+03 1.318456478165618080e+02
2.497340825369436743e+02 1.381926228297447096e+03 1.342074500200804721e+02
2.519861135729979651e+02 1.382610907931707516e+03 1.346248469374700960e+02
2.542381446090522559e+02 1.383295587565967708e+03 1.350422438548597199e+02
2.560259275175850462e+02 1.389019555287814910e+03 1.363495389467332473e+02
2.582861521484439891e+02 1.389706726001196557e+03 1.367684544849407189e+02
2.605464055216186239e+02 1.390393905453035813e+03 1.371873753503190017e+02
2.628066301524776236e+02 1.391081076166417233e+03 1.376062908885264733e+02
2.650668547833366233e+02 1.391768246879798880e+03 1.380252064267339733e+02
2.668191434382418379e+02 1.398517509986891127e+03 1.395211099904649075e+02
2.690892291327185717e+02 1.399207678735967193e+03 1.399418532022214379e+02
2.713592860754590674e+02 1.399897838743721195e+03 1.403625910850611547e+02
2.736293430181995063e+02 1.400587998751475425e+03 1.407833289679008431e+02
2.755089229383971769e+02 1.406339875300228641e+03 1.421076379415020483e+02
2.777871734759423816e+02 1.407032526387103871e+03 1.425298944451596128e+02
2.796165106685890578e+02 1.413805214376709728e+03 1.440400783825999440e+02
2.814655125052307767e+02 1.420583880962190733e+03 1.455539070029937250e+02
2.837634276665389734e+02 1.421282510637811129e+03 1.459798081959157514e+02
2.860613715795835219e+02 1.421981149054753587e+03 1.464057147177545914e+02
2.883592867408917186e+02 1.422679778730373982e+03 1.468316159106766179e+02
2.906572306539362103e+02 1.423378417147316213e+03 1.472575224325154579e+02
2.929551458152445207e+02 1.424077046822936836e+03 1.476834236254374844e+02
2.952530897282889555e+02 1.424775685239879067e+03 1.481093301472763244e+02
2.975510048895972091e+02 1.425474314915499463e+03 1.485352313401983508e+02
-3.152376703661997226e+01 1.252091060475360791e+03 7.135551560454791797e+01
-2.778920966093261313e+01 1.248045184876630628e+03 7.108049880092536910e+01
-2.561584814205741623e+01 1.248705946804879204e+03 7.148331491838933971e+01
-2.190587639298354361e+01 1.244652596496623346e+03 7.120374135484817657e+01
-1.821229444071320813e+01 1.240594263610458938e+03 7.092112623325854770e+01
-1.453510334499196688e+01 1.236530947078208555e+03 7.063547702358272318e+01
-1.087430214259842387e+01 1.232462647565710768e+03 7.034679007115741456e+01
-5.726060951517922604e+00 1.223665287079217705e+03 6.936659626215364938e+01
-9.097283595565954784e-01 1.215803273749455457e+03 6.851832653433089604e+01
2.687149329987619240e+00 1.211715539723535130e+03 6.821779184233858473e+01
4.788393062924058086e+00 1.212354375853022702e+03 6.860724147370274295e+01
8.360686378797424823e+00 1.208259167498505576e+03 6.830215025401523121e+01
1.191658890638410639e+01 1.204158975891648652e+03 6.799402112570442114e+01
1.516517044489495447e+01 1.201001607129016520e+03 6.782236935279618706e+01
1.868993065227834904e+01 1.196891947769684521e+03 6.750846439781793151e+01
2.076003334389804422e+01 1.197521316162521089e+03 6.789214227273564006e+01
2.540426899892651136e+01 1.189606980610751179e+03 6.701197567945328615e+01
2.888149685625427310e+01 1.185482869731204119e+03 6.668926479613239167e+01
3.092865208252067077e+01 1.186105261460782458e+03 6.706868953192943650e+01
3.297580731820761457e+01 1.186727653193225024e+03 6.744811426947254063e+01
3.614079621704911460e+01 1.183544869959371454e+03 6.726096923312530862e+01
3.818139657500825024e+01 1.184165268827944374e+03 6.763917907366487725e+01
4.022199693296732903e+01 1.184785667696517066e+03 6.801738891420447430e+01
4.226259728150580486e+01 1.185406066562225760e+03 6.839559875299804048e+01
4.566770712679988264e+01 1.181260029815178541e+03 6.805952134167236522e+01
4.770011030069753133e+01 1.181877936513396889e+03 6.843621189615251410e+01
4.973251705443129822e+01 1.182495844299984356e+03 6.881290311412820415e+01
5.042499511466485274e+01 1.187887660942419643e+03 6.990843744816876892e+01
5.246559188336726720e+01 1.188508058719759219e+03 7.028664662346676550e+01
5.450619223190574303e+01 1.189128457585467913e+03 7.066485646226030326e+01
5.786213332043752189e+01 1.184967472178363096e+03 7.031966599379828153e+01
5.989453649433517057e+01 1.185585378876581672e+03 7.069635654827840199e+01
6.062799330578303625e+01 1.190989654191186446e+03 7.179948598387906600e+01
6.266859366374217188e+01 1.191610053059759139e+03 7.217769582441866305e+01
6.599174958644368871e+01 1.187439100056741836e+03 7.182642887346835892e+01
6.674978719172628416e+01 1.192850848611574293e+03 7.293411417326862534e+01
6.879038754026475999e+01 1.193471247477282986e+03 7.331232401206219151e+01
7.083098789822389563e+01 1.194091646345855906e+03 7.369053385260176015e+01
7.287158825618297442e+01 1.194712045214428599e+03 7.406874369314135720e+01
7.391892274319383205e+01 1.199175491098591237e+03 7.503661100558278463e+01
7.596607796946022972e+01 1.199797882828169804e+03 7.541603574137982946e+01
7.801323320514717352e+01 1.200420274560612370e+03 7.579546047892290517e+01
8.103398249066469816e+01 1.197193638500525140e+03 7.558158172132445429e+01
8.307458284862377695e+01 1.197814037369098060e+03 7.595979156186405135e+01
8.415469890278751564e+01 1.202287449755075841e+03 7.693373468980612984e+01
8.715578356454199138e+01 1.199054835106243672e+03 7.671621124294321703e+01
8.919638392250107017e+01 1.199675233974816365e+03 7.709442108348281408e+01
9.123698428046020581e+01 1.200295632843389285e+03 7.747263092402241114e+01
9.327758462899868164e+01 1.200916031709097979e+03 7.785084076281594889e+01
9.531818498695776043e+01 1.201536430577670671e+03 7.822905060335554595e+01
9.735878534491689607e+01 1.202156829446243592e+03 7.860726044389514300e+01
9.939937851494192955e+01 1.202777226129485825e+03 7.898546895220550823e+01
1.014399788729010083e+02 1.203397624998058745e+03 7.936367879274510528e+01
1.034805792308601440e+02 1.204018023866631438e+03 7.974188863328470234e+01
1.055211795888192228e+02 1.204638422735204358e+03 8.012009847382427097e+01
1.075617799373576986e+02 1.205258821600912825e+03 8.049830831261783715e+01
1.096023802953167774e+02 1.205879220469485745e+03 8.087651815315740578e+01
1.116429806532759130e+02 1.206499619338058437e+03 8.125472799369700283e+01
1.136835810112349918e+02 1.207120018206631357e+03 8.163293783423659988e+01
1.157241741812600253e+02 1.207740414889873591e+03 8.201114634254696512e+01
1.177647817271532062e+02 1.208360815943776970e+03 8.238935751531576557e+01
1.198053748877576368e+02 1.208981212624155205e+03 8.276756602188012835e+01
1.210035002671430107e+02 1.213490503104323807e+03 8.376338128558859353e+01
1.238865756036758512e+02 1.210222010361300818e+03 8.352398570295929403e+01
1.250978107290963521e+02 1.214735286566344939e+03 8.452223075892874249e+01
1.271449731432967951e+02 1.215357680481253738e+03 8.490165682695499072e+01
1.291921211910497220e+02 1.215980070028365844e+03 8.528108023226886303e+01
1.312392836146707680e+02 1.216602463946138869e+03 8.566050630204117056e+01
1.322825157962518290e+02 1.222100919529012799e+03 8.682105025924778374e+01
1.333421351768629108e+02 1.227604357272992956e+03 8.798463145983618006e+01
1.354056847806727149e+02 1.228231733346144210e+03 8.836709476949815212e+01
1.366857461000753062e+02 1.232765934616062395e+03 8.937809622983610325e+01
1.387558505910336635e+02 1.233395303555947521e+03 8.976177443824761326e+01
1.408259550725713893e+02 1.234024672492968648e+03 9.014545264491309240e+01
1.428960595541090868e+02 1.234654041429989775e+03 9.052913085157857154e+01
1.449661640356468126e+02 1.235283410367010674e+03 9.091280905824402225e+01
1.470362685266051699e+02 1.235912779306896027e+03 9.129648726665553227e+01
1.481761989747611494e+02 1.241440633460544632e+03 9.247495734930168965e+01
1.502544970511035842e+02 1.242072493476686986e+03 9.286015417678504491e+01
1.523327951274460190e+02 1.242704353492829114e+03 9.324535100426837175e+01
1.536866275504364410e+02 1.247260983214757971e+03 9.427002539068701026e+01
1.557714805045067408e+02 1.247894836094769971e+03 9.465643711517384418e+01
1.569671422955391620e+02 1.253439634488901220e+03 9.584523274746189259e+01
1.599411864126473688e+02 1.249162541854793972e+03 9.542926056414751201e+01
1.611532354027098108e+02 1.254712322410031675e+03 9.662109343981731513e+01
1.623816859488291300e+02 1.260267089491308525e+03 9.781596621983527484e+01
1.644829260925088761e+02 1.260905924529562981e+03 9.820541518595783259e+01
1.665841662361885938e+02 1.261544759567817209e+03 9.859486415208039034e+01
1.678453911615267771e+02 1.267109490965578743e+03 9.979581141536974087e+01
1.699548249000112037e+02 1.267750817082954427e+03 1.001867790023101747e+02
1.714053704872875983e+02 1.272336850278945576e+03 1.012293784320964392e+02
1.727059246695724539e+02 1.277913538857061667e+03 1.024376150756607728e+02
1.748301212470369705e+02 1.278559353285224915e+03 1.028313188431349374e+02
1.761552556824724434e+02 1.284143514565213991e+03 1.040441150939370516e+02
1.782876458641623003e+02 1.284791820075362693e+03 1.044393374839751232e+02
1.796373759911435002e+02 1.290383459498866614e+03 1.056566885169050067e+02
1.817779597582174347e+02 1.291034256085272318e+03 1.060534295260148667e+02
1.839185435347120006e+02 1.291685052674542248e+03 1.064501705368707860e+02
1.853010480314914048e+02 1.297286656411666854e+03 1.076735960513260864e+02
1.874498254027906512e+02 1.297939944080057785e+03 1.080718556829998533e+02
1.895986027646692662e+02 1.298593231745584717e+03 1.084701153129275895e+02
1.917473801359685410e+02 1.299246519413975648e+03 1.088683749446013564e+02
1.931708669826396090e+02 1.304860582917367083e+03 1.100993962276043874e+02
1.953278379487435643e+02 1.305516361664879241e+03 1.104991744800960305e+02
1.967759050499559521e+02 1.311137897871545647e+03 1.117347553605337680e+02
1.989410696014439850e+02 1.311796167695314807e+03 1.121360522320972279e+02
2.011062485382207683e+02 1.312454441892609111e+03 1.125373517698651540e+02
2.025870905485247704e+02 1.318085942949848913e+03 1.137790033985932325e+02
2.047604630706856312e+02 1.318746708223400219e+03 1.141818215554329470e+02
2.062659002412718223e+02 1.324385686888664850e+03 1.154280317110730039e+02
2.084474519917899045e+02 1.325048938873540465e+03 1.158323658260182469e+02
2.099774843226583414e+02 1.330695395146829242e+03 1.170831345085702822e+02
2.121672440344286201e+02 1.331361142578623003e+03 1.174889899070457489e+02
2.135948216472409626e+02 1.338012706325818272e+03 1.189142102119652407e+02
2.157944136803133688e+02 1.338681443054848842e+03 1.193218879568189834e+02
2.179939769616495653e+02 1.339350171042557349e+03 1.197295603727558841e+02
2.201935689853013400e+02 1.340018907768723693e+03 1.201372381158635676e+02
2.217908031675523546e+02 1.345685795260894110e+03 1.214004621532312740e+02
2.239985887860088667e+02 1.346357023066181682e+03 1.218096585171568336e+02
2.262063456621497437e+02 1.347028242133011418e+03 1.222188495539115820e+02
2.284141312806062558e+02 1.347699469938298762e+03 1.226280459178371416e+02
2.300523334368808150e+02 1.353378812826075318e+03 1.238988630592941718e+02
2.315946501286951786e+02 1.360065260422289384e+03 1.253453493845805440e+02
2.338204616538379526e+02 1.360741968601070539e+03 1.257578867139561964e+02
2.355012705012127867e+02 1.366434265099704362e+03 1.270366006833168910e+02
2.377353043728965076e+02 1.367113473098928580e+03 1.274506619624272048e+02
2.404978962481073665e+02 1.362772093143142456e+03 1.269954987055751587e+02
2.422033146222119626e+02 1.368471871617597571e+03 1.282787738645602360e+02
2.444373197515800484e+02 1.369151070878364180e+03 1.286928298164997670e+02
2.461672901583624764e+02 1.374858313848860917e+03 1.299806555090216023e+02
2.489053300008955034e+02 1.370509469397033172e+03 1.295209417186327983e+02
2.500665446453218408e+02 1.382261335632518694e+03 1.318639824158831573e+02
2.523185756813761316e+02 1.382946015266779114e+03 1.322813793332727812e+02
2.540993751257999804e+02 1.388668711668576179e+03 1.335786258034329705e+02
2.563595997566588949e+02 1.389355882381957599e+03 1.339975413416404706e+02
2.586198243875178377e+02 1.390043053095339246e+03 1.344164568798479422e+02
2.608800777606925294e+02 1.390730232547178503e+03 1.348353777452262250e+02
2.631403023915514723e+02 1.391417403260559922e+03 1.352542932834336966e+02
2.648842102616454213e+02 1.398165140142758446e+03 1.367381430087087040e+02
2.671542671949654277e+02 1.398855300147648450e+03 1.371588808898023899e+02
2.694243528894421615e+02 1.399545468896724515e+03 1.375796241015589203e+02
2.716944098321826004e+02 1.400235628904478517e+03 1.380003619843986371e+02
2.739644667749230393e+02 1.400925788912232747e+03 1.384210998672383255e+02
2.758452568258164206e+02 1.406678885220057282e+03 1.397368788399440689e+02
2.776662137568854973e+02 1.413450047518797192e+03 1.412350051825950743e+02
2.799542966063122549e+02 1.414145687900045004e+03 1.416590840308848556e+02
2.818047499619943892e+02 1.420925817553542629e+03 1.431626811459057933e+02
2.841026651233025859e+02 1.421624447229163025e+03 1.435885823388278197e+02
2.860522813667872128e+02 1.427398468600459864e+03 1.449171177257051681e+02
2.883584188746364134e+02 1.428099598096523323e+03 1.453445428683618843e+02
2.906645563824856140e+02 1.428800727592587009e+03 1.457719680110186005e+02
2.929706651385985197e+02 1.429501848347328632e+03 1.461993878247584746e+02
2.952768026464477202e+02 1.430202977843392091e+03 1.466268129674151908e+02
-2.529500030966607937e+01 1.249029347455259085e+03 6.922171432650867473e+01
-2.158623816002437934e+01 1.244974777923422607e+03 6.895066701907873608e+01
-1.942107225196690479e+01 1.245633048159626469e+03 6.935196414207209159e+01
-1.573689537095503965e+01 1.241571004027100798e+03 6.907636014107310984e+01
-1.055829376907206552e+01 1.232781170252188758e+03 6.811930198348699150e+01
-6.915092953006649168e+00 1.228706668265172311e+03 6.783610336874647828e+01
-1.793857655642909776e+00 1.219899393923246180e+03 6.686840895730642842e+01
1.511121603183653406e+00 1.216758490073526445e+03 6.671421427748182964e+01
5.098594299152409803e+00 1.212667045197855714e+03 6.642068688728906523e+01
8.669678015593603959e+00 1.208570617619757741e+03 6.612412192371280639e+01
1.222437094374811295e+01 1.204469206789320197e+03 6.582451905151319238e+01
1.547198427117160691e+01 1.201310862112052746e+03 6.565969203023880141e+01
1.755028054817535121e+01 1.201942721581146316e+03 6.604488852422832679e+01
2.106563704086971711e+01 1.197829351387887755e+03 6.573799494127061394e+01
2.570769488676938863e+01 1.189912820699303666e+03 6.487317934593022528e+01
2.918371314466497779e+01 1.185787490596175985e+03 6.455899471872058371e+01
3.123086837093137547e+01 1.186409882325754324e+03 6.493841945451762854e+01
3.327802360661831926e+01 1.187032274058196890e+03 6.531784419206070424e+01
3.644204482424521530e+01 1.183848515443796487e+03 6.513752017236618030e+01
3.848264518220435093e+01 1.184468914312369407e+03 6.551573001290574894e+01
4.052324554016342972e+01 1.185089313180942099e+03 6.589393985344534599e+01
4.393534297008676504e+01 1.180944549380668604e+03 6.556790798429034339e+01
4.596774613456386760e+01 1.181562456076022954e+03 6.594459853702443297e+01
4.908423679205316148e+01 1.178364246485591593e+03 6.575546892073506910e+01
5.003255606219528318e+01 1.182798270560828769e+03 6.669798030948027190e+01
5.206495923609298870e+01 1.183416177259047345e+03 6.707467086396042077e+01
5.409736240057003442e+01 1.184034083954401467e+03 6.745136141669451035e+01
5.612976916372440428e+01 1.184651991743853159e+03 6.782805263641625970e+01
5.816217232820150684e+01 1.185269898439207509e+03 6.820474318915034928e+01
6.123932654080999782e+01 1.182059729483091360e+03 6.800832286035682728e+01
6.222698226525352538e+01 1.186505712926877550e+03 6.895812496335221908e+01
6.425938184047390678e+01 1.187123618530998783e+03 6.933481485084473661e+01
6.731686783064202473e+01 1.183907469892040126e+03 6.913474916579914975e+01
6.934271971606852958e+01 1.184523384817621945e+03 6.951022548851736360e+01
7.035659493258236807e+01 1.188977339711158947e+03 7.046488717603466512e+01
7.238900169573679477e+01 1.189595247500610640e+03 7.084157839575641447e+01
7.542026099647995352e+01 1.186371125223706485e+03 7.063665179221365520e+01
7.744611288190645837e+01 1.186987040149288305e+03 7.101212811493186905e+01
7.725403757929728954e+01 1.196256488435999245e+03 7.270171431346139457e+01
7.929463793725636833e+01 1.196876887304571937e+03 7.307992415400099162e+01
8.255102112622000732e+01 1.192684782074343730e+03 7.272503182816058143e+01
8.458342788937443402e+01 1.193302689863795422e+03 7.310172304788233077e+01
8.541643181377901328e+01 1.198738081722095785e+03 7.421455234164452008e+01
8.745703217173809207e+01 1.199358480590668705e+03 7.459276218218408872e+01
8.949763252969717087e+01 1.199978879459241398e+03 7.497097202272368577e+01
9.153823288765630650e+01 1.200599278327814318e+03 7.534918186326328282e+01
9.357883323619478233e+01 1.201219677193523012e+03 7.572739170205682058e+01
9.561943359415386112e+01 1.201840076062095704e+03 7.610560154259641763e+01
9.766003395211299676e+01 1.202460474930668624e+03 7.648381138313601468e+01
9.970062712213803024e+01 1.203080871613910858e+03 7.686201989144637992e+01
1.017412274800971090e+02 1.203701270482483778e+03 7.724022973198597697e+01
1.037818278380562447e+02 1.204321669351056471e+03 7.761843957252557402e+01
1.058224281960153235e+02 1.204942068219629391e+03 7.799664941306514265e+01
1.078630285445537993e+02 1.205562467085337857e+03 7.837485925185870883e+01
1.099036289025128781e+02 1.206182865953910778e+03 7.875306909239827746e+01
1.119442292604720137e+02 1.206803264822483470e+03 7.913127893293787452e+01
1.139848296184310925e+02 1.207423663691056390e+03 7.950948877347747157e+01
1.160254227884561260e+02 1.208044060374298624e+03 7.988769728178783680e+01
1.180660303343493069e+02 1.208664461428202003e+03 8.026590845455663725e+01
1.201066234949537375e+02 1.209284858108580238e+03 8.064411696112100003e+01
1.221472310408469184e+02 1.209905259162483389e+03 8.102232813388977206e+01
1.241878242108719519e+02 1.210525655845725851e+03 8.140053664220016572e+01
1.262284173808969854e+02 1.211146052528968085e+03 8.177874515051055937e+01
1.282690249267901379e+02 1.211766453582871463e+03 8.215695632327933140e+01
1.294943374794604551e+02 1.216284690893337711e+03 8.315081015485702665e+01
1.315414999030815011e+02 1.216907084811110735e+03 8.353023622462933417e+01
1.325859416840947063e+02 1.222406759617565285e+03 8.468225392572472288e+01
1.346412833266523137e+02 1.223031640243798392e+03 8.506319595185647131e+01
1.357103207978205432e+02 1.228538793192366029e+03 8.621976844488273173e+01
1.369913497970469791e+02 1.233073969841429061e+03 8.722394889837110554e+01
1.390614542880053364e+02 1.233703338781314187e+03 8.760762710678261556e+01
1.411315587695430622e+02 1.234332707718335314e+03 8.799130531344809469e+01
1.432016632510807597e+02 1.234962076655356441e+03 8.837498352011357383e+01
1.443264166389323009e+02 1.240486168408432377e+03 8.954188637003161944e+01
1.464047147246953671e+02 1.241118028427438730e+03 8.992708319926100557e+01
1.484830128010377734e+02 1.241749888443580858e+03 9.031228002674433242e+01
1.505613108773802082e+02 1.242381748459723212e+03 9.069747685422768768e+01
1.526396089537226430e+02 1.243013608475865340e+03 9.108267368171101452e+01
1.539944095878004759e+02 1.247571214112429516e+03 9.210052331649580992e+01
1.560792625418707757e+02 1.248205066992441516e+03 9.248693504098264384e+01
1.572761339323353411e+02 1.253751084610153384e+03 9.366720441715946777e+01
1.593691804812103783e+02 1.254387428569286612e+03 9.405513476246417781e+01
1.605906326655096166e+02 1.259940919427226163e+03 9.523996000284063257e+01
1.626918871850574533e+02 1.260579758836141536e+03 9.562941163342159712e+01
1.639379201443503007e+02 1.266140722928580317e+03 9.681879273450559253e+01
1.660473682587028179e+02 1.266782053416616918e+03 9.720976298590443321e+01
1.681568019971872729e+02 1.267423379533992374e+03 9.760073057284483866e+01
1.702662357356716996e+02 1.268064705651368058e+03 9.799169815978527254e+01
1.717177495326447456e+02 1.272651714760592768e+03 9.902747284774082459e+01
1.730195133143617738e+02 1.278229622562289478e+03 1.002271832351939338e+02
1.743376786615563390e+02 1.283812516892889562e+03 1.014299335287411452e+02
1.764700544579574171e+02 1.284460818029513121e+03 1.018251532525747507e+02
1.786024446396472740e+02 1.285109123539661823e+03 1.022203756426128223e+02
1.799533843646699154e+02 1.290701982185344605e+03 1.034292004292345837e+02
1.820939681317438499e+02 1.291352778771750309e+03 1.038259414383444437e+02
1.842345519082384158e+02 1.292003575361020239e+03 1.042226824492003630e+02
1.856182660044499357e+02 1.297606398321725464e+03 1.054375817075444388e+02
1.877670433757491821e+02 1.298259685990116395e+03 1.058358413392182058e+02
1.891753531635065428e+02 1.303869987094336693e+03 1.070552953796900795e+02
1.913323241296104982e+02 1.304525765841848852e+03 1.074550736321817226e+02
1.934892950862938505e+02 1.305181544586496784e+03 1.078548518829273064e+02
1.949303787220064237e+02 1.310801809471711522e+03 1.090803841514548367e+02
1.970955432829151164e+02 1.311460079298344908e+03 1.094816810247643275e+02
1.992607078344031493e+02 1.312118349122114068e+03 1.098829778963277874e+02
2.007345802346233086e+02 1.317748582697338406e+03 1.111145873143312031e+02
2.029079383809160788e+02 1.318409343600228794e+03 1.115174028067125391e+02
2.044064059306071215e+02 1.324047054779211749e+03 1.127535707596850045e+02
2.065879576717045438e+02 1.324710306761223364e+03 1.131579048728841883e+02
2.081109916313323538e+02 1.330355486808310616e+03 1.143986260140487445e+02
2.103007513525232355e+02 1.331021234242968376e+03 1.148044814142702421e+02
2.117199487051487665e+02 1.337671272300700139e+03 1.162176441145973342e+02
2.139195407288005413e+02 1.338340009026866255e+03 1.166253218577050177e+02
2.161191327618729474e+02 1.339008745755896825e+03 1.170329996025587604e+02
2.177011611320832571e+02 1.344671862106172512e+03 1.182846510782815699e+02
2.199089467505397408e+02 1.345343089911460083e+03 1.186938474422071010e+02
2.221167323784168843e+02 1.346014317719611654e+03 1.191030438078786915e+02
2.243245179968733964e+02 1.346685545524899226e+03 1.195122401718042511e+02
2.259475425629707104e+02 1.352361125478013946e+03 1.207714938155143329e+02
2.281634930244956365e+02 1.353034835621100683e+03 1.211822034713408982e+02
2.296974294547325144e+02 1.359719757526449030e+03 1.226166322018380015e+02
2.319232409892958344e+02 1.360396465708094411e+03 1.230291695329596564e+02
2.335970658318775577e+02 1.366087490348323399e+03 1.242978386236452479e+02
2.358310709612455867e+02 1.366766689609090008e+03 1.247118945755847790e+02
2.380651048329293076e+02 1.367445897608314226e+03 1.251259558546950927e+02
2.402991099622973366e+02 1.368125096869080835e+03 1.255400118066346238e+02
2.425331150822447626e+02 1.368804296126983218e+03 1.259540677568281239e+02
2.442561015030753424e+02 1.374510267244803572e+03 1.272318485741669178e+02
2.464983002178274205e+02 1.375191957581827182e+03 1.276474231451782657e+02
2.487404989420001868e+02 1.375873647921714792e+03 1.280629977179356729e+02
2.503990067537000357e+02 1.382596442967590065e+03 1.295205148116858425e+02
2.521728222121719227e+02 1.388317867516710976e+03 1.308077164066629905e+02
2.544330468336103195e+02 1.389005038227228397e+03 1.312266319431244312e+02
2.561390780283250592e+02 1.395742282068069699e+03 1.326929532931831375e+02
2.584091349710655550e+02 1.396432442075823928e+03 1.331136911760228543e+02
2.612137494685028400e+02 1.391066559105830720e+03 1.324833838849176857e+02
2.634739740993618398e+02 1.391753729819212140e+03 1.329022994231251573e+02
2.652193345510232803e+02 1.398502930840407998e+03 1.343759101534588183e+02
2.670685598221299415e+02 1.404247282055328469e+03 1.356770883867819180e+02
2.697594771788199637e+02 1.399883259594374067e+03 1.352173912463090346e+02
2.716250608877997479e+02 1.405632584226214931e+03 1.365216013923510161e+02
2.739033114253448957e+02 1.406325235313090161e+03 1.369438578960085806e+02
2.757158875729935517e+02 1.413094871388338333e+03 1.384299303904005569e+02
2.780039991647358875e+02 1.413790520508043983e+03 1.388540145658611493e+02
2.798460722480291452e+02 1.420569124466409903e+03 1.403455540941498043e+02
2.821439874187580585e+02 1.421267754144894525e+03 1.407714552888178901e+02
2.844419025800662553e+02 1.421966383820514920e+03 1.411973564817399165e+02
2.863927284229829979e+02 1.427741624415392380e+03 1.425173656125060404e+02
2.886988659308321985e+02 1.428442753911455839e+03 1.429447907551627566e+02
2.910050034386813991e+02 1.429143883407519525e+03 1.433722158978194727e+02
2.933111121947943047e+02 1.429845004162261148e+03 1.437996357115593469e+02
2.952400661291013080e+02 1.436650022298915246e+03 1.453072779483865418e+02
-3.024867688884512518e+01 1.258115121640006009e+03 6.788189244266047240e+01
-2.497415247727479937e+01 1.249352748105638739e+03 6.696011373462798133e+01
-2.280079118449452835e+01 1.250013509965148160e+03 6.736292981018695514e+01
-1.910143455027127857e+01 1.245955229050935031e+03 6.709889355108686004e+01
-1.541846726869158601e+01 1.241891965694828741e+03 6.683181580619910278e+01
-1.175189040089173886e+01 1.237823718827250786e+03 6.656170405528905576e+01
-6.600294178912406551e+00 1.229023971728069455e+03 6.561714153718727971e+01
-1.481479141549243650e+00 1.220214257869402900e+03 6.466650711773505122e+01
1.822532968716927826e+00 1.217072379176028562e+03 6.451912969997582081e+01
5.408795533989973592e+00 1.212979714541286739e+03 6.423413231067851825e+01
7.510039276347015402e+00 1.213618550673638310e+03 6.462358194378867893e+01
1.107171746934000112e+01 1.209518411711701219e+03 6.433402801699313045e+01
1.577879809744820250e+01 1.201620117095088744e+03 6.349701470768144418e+01
1.785709437445194681e+01 1.202251976564182314e+03 6.388221120167096956e+01
2.137124073784144684e+01 1.198137386613254648e+03 6.358384760980558781e+01
2.601112130448507287e+01 1.190218661321944865e+03 6.273437927742602938e+01
2.948592943307568248e+01 1.186092111461147624e+03 6.242872464130874732e+01
3.153308465934208016e+01 1.186714503190725964e+03 6.280814937710579215e+01
3.470269667355034926e+01 1.183531763155147928e+03 6.263586192825198395e+01
3.674329343283210392e+01 1.184152160929623506e+03 6.301407110180394966e+01
3.878389379079123955e+01 1.184772559798196426e+03 6.339228094234351829e+01
4.220297468621430426e+01 1.180629067319374371e+03 6.307629768509875134e+01
4.423538144936867411e+01 1.181246975108826064e+03 6.345298890482047227e+01
4.735745929534141396e+01 1.178049783000255729e+03 6.327189519063813350e+01
5.046642432786507015e+01 1.174848604608203232e+03 6.308836727242302800e+01
5.140915587826032151e+01 1.179281610666089136e+03 6.402284650384538622e+01
5.343500417443016204e+01 1.179897524500437612e+03 6.439832216132202802e+01
5.546085246117928591e+01 1.180513438331922316e+03 6.477379781705263895e+01
5.748670075734912643e+01 1.181129352166271019e+03 6.514927347452928075e+01
5.951254545484152914e+01 1.181745264906522380e+03 6.552474846501831962e+01
6.258217405190509908e+01 1.178532127151648865e+03 6.533392983604508686e+01
6.356424203776049353e+01 1.182977092572355559e+03 6.627569977822557235e+01
6.559009392318699838e+01 1.183593007497937379e+03 6.665117610094378620e+01
6.864005070855341728e+01 1.180373888968988240e+03 6.645671145047688810e+01
7.065934771625205713e+01 1.180987811030700414e+03 6.683097287619162330e+01
7.267863753601665167e+01 1.181601730907081901e+03 6.720523296967715510e+01
7.469792736520179233e+01 1.182215650786327615e+03 6.757949306490871777e+01
7.671721718496638687e+01 1.182829570662709330e+03 6.795375315839424957e+01
7.873651419266496987e+01 1.183443492724421503e+03 6.832801458410898476e+01
8.075580402185016737e+01 1.184057412603667217e+03 6.870227467934054744e+01
8.081866003970219481e+01 1.192369302201244182e+03 7.023342286294425207e+01
8.285105960550191639e+01 1.192987207802501189e+03 7.061011274869071030e+01
8.488346636865634309e+01 1.193605115591952881e+03 7.098680396841245965e+01
8.787442155411548583e+01 1.190368058573083317e+03 7.078140766096115044e+01
8.894827270703103750e+01 1.194840928985525579e+03 7.174018507562669811e+01
9.098067947018546420e+01 1.195458836774977271e+03 7.211687629534841903e+01
9.301308623333983405e+01 1.196076744564428736e+03 7.249356751507013996e+01
9.504548580856021545e+01 1.196694650168549970e+03 7.287025740256265749e+01
9.707789257171458530e+01 1.197312557958001662e+03 7.324694862228440684e+01
9.911029932544835219e+01 1.197930465744589128e+03 7.362363984026006847e+01
1.011426989006686767e+02 1.198548371348710134e+03 7.400032972775261442e+01
1.031751056638231034e+02 1.199166279138161826e+03 7.437702094747433534e+01
1.052075124269774733e+02 1.199784186927613518e+03 7.475371216719605627e+01
1.072399120021978547e+02 1.200402092531734525e+03 7.513040205468857380e+01
1.092723187653522245e+02 1.201020000321186217e+03 7.550709327441029473e+01
1.102048775110997667e+02 1.206486511439737797e+03 7.662962002183604682e+01
1.122454778690589023e+02 1.207106910308310489e+03 7.700782986237564387e+01
1.142860782270179811e+02 1.207727309176883409e+03 7.738603970291524092e+01
1.163266713970430146e+02 1.208347705860125643e+03 7.776424821122560616e+01
1.183672789429361956e+02 1.208968106914029022e+03 7.814245938399440661e+01
1.204078721035406261e+02 1.209588503594407257e+03 7.852066789055876939e+01
1.224484796494337502e+02 1.210208904648310408e+03 7.889887906332754142e+01
1.244890728194587837e+02 1.210829301331552870e+03 7.927708757163793507e+01
1.265296659894838172e+02 1.211449698014795104e+03 7.965529607994832872e+01
1.285702735353769697e+02 1.212070099068698482e+03 8.003350725271710076e+01
1.297965537678711883e+02 1.216589311758309350e+03 8.102054007744519026e+01
1.318437161914922342e+02 1.217211705676082374e+03 8.139996614721749779e+01
1.328893681018103621e+02 1.222712600240206484e+03 8.254345385722055539e+01
1.339514072111585392e+02 1.228218476965436594e+03 8.368997881060536770e+01
1.360149568149683432e+02 1.228845853038587848e+03 8.407244212026733976e+01
1.372969534940186804e+02 1.233382005066795955e+03 8.506980156690607942e+01
1.393670579849770377e+02 1.234011374006681081e+03 8.545347977531758943e+01
1.414371624665147635e+02 1.234640742943702207e+03 8.583715798198306857e+01
1.425549323888664901e+02 1.240163563375326021e+03 8.699401221999090694e+01
1.446332304652089249e+02 1.240795423391468375e+03 8.737920904747423378e+01
1.467115285509719911e+02 1.241427283410474729e+03 8.776440587670361992e+01
1.487898266273143975e+02 1.242059143426616856e+03 8.814960270418694677e+01
1.508681247036568323e+02 1.242691003442759211e+03 8.853479953167030203e+01
1.529464227799992670e+02 1.243322863458901338e+03 8.891999635915362887e+01
1.543021910939009729e+02 1.247881444474610589e+03 8.993102498708881853e+01
1.554920784889929735e+02 1.253426190236781849e+03 9.110124948633659869e+01
1.575851250378679822e+02 1.254062534195915077e+03 9.148917983164128032e+01
1.596781715867430194e+02 1.254698878155048305e+03 9.187711017694599036e+01
1.609008339003472088e+02 1.260253588770657188e+03 9.305340542623008560e+01
1.621398977713991485e+02 1.265813285913706977e+03 9.423274057005917825e+01
1.642493315098835751e+02 1.266454612031082434e+03 9.462370815699958371e+01
1.663587796242360923e+02 1.267095942519119035e+03 9.501467840839842438e+01
1.677981364384456242e+02 1.271679936373597911e+03 9.604120337582321554e+01
1.699141250546579442e+02 1.272323255354843241e+03 9.643338585976712807e+01
1.712089053708751862e+02 1.277899891835088056e+03 9.762304763530997320e+01
1.725200872539607246e+02 1.283481514845638003e+03 9.881574930714390348e+01
1.746524774356505816e+02 1.284129820355786705e+03 9.921097169718194664e+01
1.767848532320516597e+02 1.284778121492410264e+03 9.960619142101555212e+01
1.781288089630924958e+02 1.290369708283954424e+03 1.008049713209051390e+02
1.802693927395870332e+02 1.291020504873224127e+03 1.012017123317610583e+02
1.824099765066609677e+02 1.291671301459629831e+03 1.015984533408709183e+02
1.837867071467933613e+02 1.297272853101747614e+03 1.028033039890508178e+02
1.859354845086720047e+02 1.297926140767274546e+03 1.032015636189785539e+02
1.880842618799712511e+02 1.298579428435665477e+03 1.035998232506523209e+02
1.894937812657700249e+02 1.304190948762064636e+03 1.048107510448160724e+02
1.916507522318739802e+02 1.304846727509576795e+03 1.052105292973077155e+02
1.938077231885573326e+02 1.305502506254224727e+03 1.056103075480532993e+02
1.952500164237020783e+02 1.311123990363020084e+03 1.068273135604696051e+02
1.974151809846107710e+02 1.311782260189653471e+03 1.072286104337790960e+02
1.995803455360988039e+02 1.312440530013422631e+03 1.076299073053425559e+02
2.010554280670146170e+02 1.318071983347718060e+03 1.088529867224505097e+02
2.025468977767285708e+02 1.323708418835990187e+03 1.100791033892512587e+02
2.040547541461790786e+02 1.329349835948415603e+03 1.113082610326688950e+02
2.062445138579493857e+02 1.330015583380209364e+03 1.117141164311443617e+02
2.076454986357250334e+02 1.336661106451301293e+03 1.131133992018529852e+02
2.098450762835086891e+02 1.337329838806806492e+03 1.135210742805022619e+02
2.120446683165811521e+02 1.337998575535837062e+03 1.139287520253559762e+02
2.142442603402329269e+02 1.338667312262003179e+03 1.143364297684636597e+02
2.158193041838071622e+02 1.344329156221247786e+03 1.155780401120416343e+02
2.180270898116842773e+02 1.345000384029399356e+03 1.159872364777132248e+02
2.202348754301407610e+02 1.345671611834686928e+03 1.163964328416387559e+02
2.224426610580179045e+02 1.346342839642838499e+03 1.168056292073103464e+02
2.240587021505855034e+02 1.352017148273039084e+03 1.180548342275610594e+02
2.262746813732673843e+02 1.352690867160311882e+03 1.184655492140505260e+02
2.278002087807697649e+02 1.359374254630608675e+03 1.198879150190954306e+02
2.294588560425949311e+02 1.365061516339040054e+03 1.211450206137801047e+02
2.316928611719629600e+02 1.365740715599806663e+03 1.215590765657196357e+02
2.339268662919103861e+02 1.366419914857709045e+03 1.219731325159131359e+02
2.356183172145632909e+02 1.372117150158036111e+03 1.232363141878049362e+02
2.378605159293154259e+02 1.372798840495059721e+03 1.236518887588162841e+02
2.406289104223301649e+02 1.368457521378466481e+03 1.232153056989025117e+02
2.428629155422775909e+02 1.369136720636368864e+03 1.236293616490960119e+02
2.445871120924130935e+02 1.374843911511858778e+03 1.248986124753424463e+02
2.468293108071651716e+02 1.375525601848882388e+03 1.253141870463537941e+02
2.490715095313379095e+02 1.376207292188769998e+03 1.257297616191112013e+02
2.507314688620782022e+02 1.382931550302661662e+03 1.271770472074885276e+02
2.529834998981324929e+02 1.383616229936922082e+03 1.275944441248781516e+02
2.547667190726841682e+02 1.389341365321371086e+03 1.288746343380316546e+02
2.570269437035431110e+02 1.390028536034752506e+03 1.292935498762391546e+02
2.592871683344020539e+02 1.390715706748134153e+03 1.297124654144466263e+02
2.615474217075766887e+02 1.391402886199973409e+03 1.301313862798249090e+02
2.638076463384356884e+02 1.392090056913354829e+03 1.305503018180323807e+02
2.655544583077468133e+02 1.398840721001165321e+03 1.320136810527963007e+02
2.678245152410668197e+02 1.399530881006055324e+03 1.324344189338899866e+02
2.700946009355435535e+02 1.400221049755131389e+03 1.328551621456465170e+02
2.719613942439554535e+02 1.405971593610552873e+03 1.341508460355772741e+02
2.742396447815006013e+02 1.406664244697428103e+03 1.345731025392348386e+02
2.760536729794532675e+02 1.413435344376183366e+03 1.360489397834697343e+02
2.783417845711956033e+02 1.414130993495889015e+03 1.364730239589303267e+02
2.801853091735292196e+02 1.420911060522271327e+03 1.379543319818461100e+02
2.824832243442581330e+02 1.421609690200755949e+03 1.383802331765141957e+02
2.847811395055663297e+02 1.422308319876376345e+03 1.388061343694362222e+02
2.867331754791787830e+02 1.428084780230325123e+03 1.401176134993068843e+02
2.890393129870279836e+02 1.428785909726388581e+03 1.405450386419636004e+02
2.913454504948771842e+02 1.429487039222452267e+03 1.409724637846203166e+02
2.932659954158702931e+02 1.436290522926918356e+03 1.424680430977414005e+02
-2.837603774102740317e+01 1.253728174051134829e+03 6.494946631530277159e+01
-2.619448116715119568e+01 1.254391427502444685e+03 6.535380132422093880e+01
-2.247994335349392259e+01 1.250336910614126054e+03 6.510132922810936407e+01
-1.878179631731211430e+01 1.246277410477734065e+03 6.484581921531739113e+01
-1.661662996648539092e+01 1.246935680848552011e+03 6.524711642037465253e+01
-1.294306820835396366e+01 1.242868706108606602e+03 6.498704971226757721e+01
-7.785695947852275367e+00 1.234069011393811024e+03 6.406106630808523050e+01
-4.153111142987256699e+00 1.229989578527342928e+03 6.379340484171495973e+01
9.468956985336944854e-01 1.221172443514761881e+03 6.285678534780652171e+01
4.243382930066502468e+00 1.218027595498697792e+03 6.271501745292985674e+01
7.820240512575367120e+00 1.213931220018471095e+03 6.243702735737502962e+01
1.138070910474539232e+01 1.209829861831551625e+03 6.215599969649377954e+01
1.492478691001946345e+01 1.205723520393694344e+03 6.187193411718607194e+01
1.816390820072859924e+01 1.202561231547218540e+03 6.171953387911358391e+01
2.167684496468586985e+01 1.198445422372710027e+03 6.142969654335945506e+01
2.631454772220075711e+01 1.190524501944586063e+03 6.059557920892183347e+01
2.978814572009571293e+01 1.186396732324717732e+03 6.029845457370001327e+01
3.183530094636211061e+01 1.187019124054296071e+03 6.067787930949705810e+01
3.500394475226437407e+01 1.183835408106886007e+03 6.051241659267085993e+01
3.704454151154612873e+01 1.184455805881361584e+03 6.089062576622282563e+01
4.047060999962843653e+01 1.180313586350775722e+03 6.058468806269786455e+01
4.250301316410548225e+01 1.180931493046130072e+03 6.096137861543195413e+01
4.453541992725985210e+01 1.181549400835581764e+03 6.133806983515367506e+01
4.874523349779377668e+01 1.174535158072101467e+03 6.061283319096344258e+01
5.076452691623569535e+01 1.175149079042580524e+03 6.098709395143657730e+01
5.278382033467761403e+01 1.175763000013059354e+03 6.136135471190974044e+01
5.480311015444215172e+01 1.176376919889441069e+03 6.173561480539524382e+01
5.682240357288407040e+01 1.176990840859919899e+03 6.210987556586840697e+01
5.884169340206926790e+01 1.177604760739165613e+03 6.248413566109996964e+01
6.086098681109052677e+01 1.178218681706780444e+03 6.285839641982707349e+01
6.288027664027572428e+01 1.178832601586026158e+03 6.323265651505863616e+01
6.489957364797436412e+01 1.179446523647738331e+03 6.360691794077337136e+01
6.691886346773890182e+01 1.180060443524119819e+03 6.398117803425890315e+01
6.893815329692404248e+01 1.180674363403365533e+03 6.435543812949046583e+01
7.222818295581186021e+01 1.176490784312399683e+03 6.402428664795826307e+01
7.297674012438727686e+01 1.181902205341459194e+03 6.510395964869073282e+01
7.499602995357241753e+01 1.182516125220704907e+03 6.547821974392229549e+01
7.826147164011200630e+01 1.178325070707045143e+03 6.514251106770728938e+01
7.903461678103559507e+01 1.183743967158798796e+03 6.622674126312256249e+01
8.105390661022079257e+01 1.184357887038044510e+03 6.660100135835412516e+01
8.307319642998533027e+01 1.184971806914425997e+03 6.697526145183965696e+01
8.509249343768397011e+01 1.185585728976138171e+03 6.734952287755436373e+01
8.711178326686916762e+01 1.186199648855383884e+03 6.772378297278595483e+01
8.817349235357352200e+01 1.190669508922095929e+03 6.867330958834088506e+01
9.019933705106598154e+01 1.191285421662347289e+03 6.904878457882992393e+01
9.128071794807664219e+01 1.195761262501732972e+03 7.000195722568162182e+01
9.425103363398494594e+01 1.192517249328180469e+03 6.979973589203717665e+01
9.534552428645139344e+01 1.196997075895305670e+03 7.075533833289586028e+01
9.830273021690385349e+01 1.193749076994013649e+03 7.055068720524442938e+01
1.003285821023304152e+02 1.194364991919595468e+03 7.092616352796264323e+01
1.023544267998228179e+02 1.194980904659846829e+03 7.130163851845168210e+01
1.043802786946699825e+02 1.195596819588292874e+03 7.167711484291592683e+01
1.064061233921624421e+02 1.196212732328544234e+03 7.205258983340496570e+01
1.075399504800890327e+02 1.200704518258490225e+03 7.301548298502177659e+01
1.095723572432434025e+02 1.201322426047941917e+03 7.339217420474349751e+01
1.116047640063977724e+02 1.201940333837393609e+03 7.376886542446524686e+01
1.125467259477729272e+02 1.207410555260048568e+03 7.488438452679454826e+01
1.145873263057320059e+02 1.208030954128621488e+03 7.526259436733414532e+01
1.166279194757570394e+02 1.208651350811863722e+03 7.564080287564451055e+01
1.186685270216502204e+02 1.209271751865767101e+03 7.601901404841331100e+01
1.207091201822546509e+02 1.209892148546145336e+03 7.639722255497767378e+01
1.227497277281478318e+02 1.210512549600048487e+03 7.677543372774644581e+01
1.247903208981728653e+02 1.211132946283290948e+03 7.715364223605683947e+01
1.268309140681978988e+02 1.211753342966533182e+03 7.753185074436723312e+01
1.288715216140910513e+02 1.212373744020436561e+03 7.791006191713600515e+01
1.300987700548911619e+02 1.216893932621879458e+03 7.889027000983645621e+01
1.321459324785122078e+02 1.217516326539652482e+03 7.926969607960876374e+01
1.331927945195260179e+02 1.223018440862847683e+03 8.040465378871635949e+01
1.352481361620836253e+02 1.223643321489080790e+03 8.078559581484810792e+01
1.355324676151935535e+02 1.233060676259891352e+03 8.253197495825284591e+01
1.376025577208631603e+02 1.233690040826251334e+03 8.291565050045991825e+01
1.396726622118215175e+02 1.234319409766136459e+03 8.329932870887142826e+01
1.417427666933592434e+02 1.234948778703157586e+03 8.368300691553690740e+01
1.428617462151431141e+02 1.240472818358362247e+03 8.483133489743352129e+01
1.449400442914855489e+02 1.241104678374504601e+03 8.521653172491684813e+01
1.470183423772486151e+02 1.241736538393510955e+03 8.560172855414623427e+01
1.490966404535910215e+02 1.242368398409653082e+03 8.598692538162956112e+01
1.504402666918608134e+02 1.246923969076767662e+03 8.698870320870818773e+01
1.525251196459311132e+02 1.247557821956779662e+03 8.737511493319502165e+01
1.537080235755233844e+02 1.253101296397499027e+03 8.853529082053253774e+01
1.558010701243984215e+02 1.253737640356632255e+03 8.892322116583724778e+01
1.570085548492161251e+02 1.259288588038981288e+03 9.008795290757132079e+01
1.591097949928958428e+02 1.259927423077235744e+03 9.047740187369387854e+01
1.612110351365755605e+02 1.260566258115489973e+03 9.086685083981643629e+01
1.624513086056688849e+02 1.266127174480718850e+03 9.203765973733740680e+01
1.645607423441533115e+02 1.266768500598094306e+03 9.242862732427781225e+01
1.666701904585058287e+02 1.267409831086130907e+03 9.281959757567665292e+01
1.681105154838027715e+02 1.271994800855245103e+03 9.383929779146760097e+01
1.693983118046474488e+02 1.277570165479949310e+03 9.501891469008140234e+01
1.715224940156644777e+02 1.278215975540315867e+03 9.541261579484316258e+01
1.728348854967914292e+02 1.283798817773044675e+03 9.659679122036894228e+01
1.749672756784812861e+02 1.284447123283193378e+03 9.699201361040698544e+01
1.770996514748823643e+02 1.285095424419816936e+03 9.738723333424059092e+01
1.784448173366188826e+02 1.290688230970432414e+03 9.857748323323471595e+01
1.805854011131134200e+02 1.291339027559702117e+03 9.897422424409063524e+01
1.827259848801873545e+02 1.291989824146107821e+03 9.937096525320049523e+01
1.841039256496246992e+02 1.297592595545894710e+03 1.005672859102880352e+02
1.854982674466369588e+02 1.303200352939034019e+03 1.017666501969017361e+02
1.876552384127409141e+02 1.303856131686546178e+03 1.021664284493933508e+02
1.898122093694242380e+02 1.304511910431194337e+03 1.025662067001389630e+02
1.912393255442645739e+02 1.310129632139416572e+03 1.037716454798271855e+02
1.926828289181348737e+02 1.315752336008745260e+03 1.049801215028971342e+02
1.948562014402957345e+02 1.316413101282296566e+03 1.053829396597368770e+02
1.970295595960091077e+02 1.317073862188051180e+03 1.057857551538642440e+02
1.992029177423018496e+02 1.317734623090941568e+03 1.061885706462455516e+02
2.006874034580339696e+02 1.323369786725074846e+03 1.074046424263141546e+02
2.028689552085520518e+02 1.324033038709950461e+03 1.078089765412593692e+02
2.043780217073074823e+02 1.329675675580045436e+03 1.090296041935846176e+02
2.057706256828214464e+02 1.336319672421916948e+03 1.104168331125421503e+02
2.079702177158938809e+02 1.336988409150947518e+03 1.108245108573958646e+02
2.101697953636775367e+02 1.337657141506452717e+03 1.112321859360451413e+02
2.123693873967499997e+02 1.338325878235483287e+03 1.116398636808988556e+02
2.145689794204017744e+02 1.338994614961649404e+03 1.120475414240065390e+02
2.161452333946716919e+02 1.344657678679965102e+03 1.132806217666890518e+02
2.183530190225488070e+02 1.345328906488116672e+03 1.136898181323606423e+02
2.199538825249391891e+02 1.350999452183655876e+03 1.149274596548644354e+02
2.227685902688824342e+02 1.346671362101555815e+03 1.145082108619577639e+02
2.243858409608822058e+02 1.352346889955337247e+03 1.157488896260972808e+02
2.259029875849641940e+02 1.359028751202141848e+03 1.171592015828831279e+02
2.281287991101069110e+02 1.359705459380923230e+03 1.175717389122587804e+02
2.297886565012369715e+02 1.365393940847023941e+03 1.188203145158510949e+02
2.320226616306050005e+02 1.366073140107790550e+03 1.192343704677906260e+02
2.337071285484647660e+02 1.371769103549713009e+03 1.204875072610072948e+02
2.359493272726375039e+02 1.372450793889600618e+03 1.209030818337647020e+02
2.381915259873896389e+02 1.373132484226624229e+03 1.213186564047760498e+02
2.409587108809722054e+02 1.368789945886450369e+03 1.208905996009735020e+02
2.426759234263145117e+02 1.374495864903535676e+03 1.221498055485448333e+02
2.449181221504873065e+02 1.375177555243423285e+03 1.225653801213022120e+02
2.465598694390319849e+02 1.381897298907567347e+03 1.239987820254737585e+02
2.488119004750862757e+02 1.382581978541827539e+03 1.244161789428633824e+02
2.510639315017199067e+02 1.383266658173223732e+03 1.248335758585069755e+02
2.528401666889288890e+02 1.388990521703594368e+03 1.261037212062805395e+02
2.551003913103672858e+02 1.389677692414111789e+03 1.265226367427419802e+02
2.573606159412262286e+02 1.390364863127493209e+03 1.269415522809494803e+02
2.596208405720851715e+02 1.391052033840874856e+03 1.273604678191569519e+02
2.618810939452598063e+02 1.391739213292714112e+03 1.277793886845352347e+02
2.636195251231206953e+02 1.398488351155570399e+03 1.292307140594909640e+02
2.658895820658611342e+02 1.399178511163324401e+03 1.296514519423306808e+02
2.681596389991810838e+02 1.399868671168214405e+03 1.300721898234243668e+02
2.700194776046408265e+02 1.405617952447772041e+03 1.313578304223046302e+02
2.722977281327654282e+02 1.406310603531783272e+03 1.317800869242161639e+02
2.736307436442864400e+02 1.419157090605519898e+03 1.342853918783553979e+02
